# .PCD v0.7 - Point Cloud Data file format
VERSION 0.7
FIELDS x y z intensity normal_x normal_y normal_z curvature
SIZE 4 4 4 4 4 4 4 4
TYPE F F F F F F F F
COUNT 1 1 1 1 1 1 1 1
WIDTH 581
HEIGHT 1
VIEWPOINT 0 0 0 1 0 0 0
POINTS 581
DATA ascii
-6.269825 21.693878 1.9756464 7 0.49491119 -0.3247467 -0.80597919 0.15658402
-21.824635 22.251764 1.6334578 52.5 0.98733127 0.15861982 -0.0040787295 1.3447864e-05
-3.6213653 22.408564 1.9859307 31 0.75331557 -0.074276932 -0.65345132 0.22037424
-21.904913 22.715448 1.6538166 41.666668 0.98699188 0.16071342 -0.0042686537 4.5161173e-06
-22.023157 23.47691 1.6869974 33 0.98697174 0.160852 -0.0036689132 1.9393014e-05
-21.98703 23.202095 1.6752218 29 0.98697722 0.16081157 -0.0039453586 0
-22.075745 23.781536 1.7005522 23 0.98697942 0.16080551 -0.0036515694 1.3780168e-06
-9.2341213 -26.134708 2.4250214 14 0.59586912 0.34345353 0.72593367 0.040843647
-9.6839066 -25.831652 2.4135749 48.333332 0.96450847 0.25350818 0.073872119 0.061254818
-9.3881903 -25.868538 2.4076483 35.666668 0.62562329 0.18800613 0.75713217 0.053397719
3.9694531 -24.108067 2.1375816 34 0.2167203 0.92266434 0.31894025 0.17744905
4.1111851 -24.190376 2.1467333 16.5 0.21672675 0.92266202 0.31894246 0.17744902
-14.535773 -23.535423 2.4201407 48 0.95844966 0.25826186 0.12114099 0.13173604
-14.294685 -23.604975 2.4143448 34 0.95846033 0.25822559 0.12113369 0.13175346
-13.778673 -23.53352 2.3858881 35.75 0.95843107 0.2583327 0.12113711 0.13173729
-13.493305 -23.656288 2.3826637 19 -0.41784489 0.43584371 0.79714864 0.29259571
-14.601985 -23.19277 2.3977852 41 0.87687874 0.47807589 -0.050269153 0.072678663
-13.621159 -23.497734 2.3762143 38 0.95843107 0.2583327 0.12113711 0.13173729
-11.021515 -23.086344 2.2381594 27 -0.28619146 0.90941614 -0.30175593 0.10651188
-10.709359 -23.038811 2.2227852 33.599998 -0.4135612 0.74452537 -0.52406967 0.16839549
-10.222131 -22.822371 2.1878417 32 0.96798253 0.1776067 -0.17738548 0.090137362
-9.8310328 -22.857325 2.176918 14 0.96798158 0.17761119 -0.17738646 0.090144843
-6.9970093 -22.382231 2.0516462 8 0.8526383 0.2828415 -0.43932736 0.053691871
-15.15359 -21.741425 2.3185751 9 0.97138375 0.22681239 -0.070497066 0.015605393
-14.910266 -21.074118 2.258554 27 0.97876948 0.20375653 0.022213276 0.011825999
-14.975189 -20.779638 2.2409048 45 0.97725767 0.21107525 0.020367064 0.015242394
-15.055796 -20.288113 2.2103567 57.5 0.97774327 0.20660058 0.036527086 0.015042501
-15.340014 -19.801533 2.1915092 21.25 0.97400099 0.22365654 -0.036053229 0.013553775
-1.1057961 -19.653965 2.4170349 13.5 0.32925844 0.3276248 -0.88557947 0.13771217
-0.93143511 -19.568695 2.4054575 21 0.4810093 0.23036756 -0.84590834 0.14083311
-15.544114 -19.225029 2.1629877 8 0.93009824 0.090819031 -0.35590622 0.043742169
-4.7051296 -19.313833 2.44084 12.833333 0.165307 0.95487148 0.2467671 0.14128758
-4.412365 -19.280998 2.4286127 11 0.090332344 0.99019819 0.1065256 0.17017137
-3.1577284 -19.453377 2.419838 2 0.87248862 0.31778389 -0.37118319 0.14779942
-0.79077095 -19.347401 2.3775492 16.5 0.58261806 0.37661478 -0.72022057 0.15224372
-15.5816 -18.93564 2.1454258 8 0.9029206 0.12376295 -0.41160315 0.045880012
-15.332312 -18.500689 2.1021965 33 0.85460758 0.14343503 -0.49907145 0.080860741
-15.373374 -18.23111 2.0864213 53.5 0.92857534 0.099373639 -0.35759282 0.05968539
-8.6021976 -18.002527 2.4498179 9 -0.063803628 0.75397414 0.65379822 0.023360962
-8.4904251 -18.084023 2.4529862 2 -0.063803308 0.75397444 0.65379798 0.023362162
2.5396698 -18.46817 2.2889504 13 0.041486595 0.96235853 0.26859802 0.01532325
-15.449783 -17.748621 2.0587232 58.400002 0.97598666 0.089696839 -0.19850563 0.040650792
1.8283501 -17.905403 2.2099788 19.833334 -0.16392337 0.96138865 0.22104546 0.025307778
-15.533041 -17.227695 2.0294387 43.200001 0.96359646 0.25142029 -0.090937786 0.014621668
-15.594807 -16.823435 2.0069644 58.666668 0.9590376 0.27712548 -0.05872326 0.0082499236
-10.729594 -16.648056 2.4319029 18.25 0.92003685 0.39183003 0.0012445709 0.019118909
-6.9218001 -16.664022 2.2155848 6.3333335 0.91781098 -0.17959207 -0.35407603 0.08754243
-11.113681 -16.414612 2.4339747 20 0.89037734 0.45511442 -0.0099486709 0.017594021
-10.842034 -16.378294 2.4117131 20 0.89037198 0.45512515 -0.0099458713 0.017599219
-6.8492265 -16.167141 2.1558688 9 0.84095007 0.24132782 -0.48431787 0.068836413
-6.817903 -15.636765 2.094528 8 0.84090739 0.24143101 -0.48434046 0.068817839
-7.1193938 -15.307691 2.0729167 12.666667 0.83692199 0.17642397 -0.51810813 0.080988728
-0.86155921 -15.220512 2.4145663 14 -0.22485398 0.38005403 0.89721769 0.13150342
4.1466675 -15.075178 2.4763579 20.5 -0.39030373 0.60295081 -0.69578248 0.13990195
-7.6316628 -14.88752 2.0541487 12.333333 0.886383 0.22917192 0.40225029 0.1334337
-3.0199094 -14.685826 2.3746755 10 -0.2630102 0.2070604 0.94231188 0.12472699
-2.8048937 -14.675387 2.3664367 6.6666665 0.18857943 0.71753979 0.67050314 0.2249449
-3.6609035 -14.152852 2.3153868 11 0.90432227 0.42316353 0.055981264 0.11401095
-3.3799224 -14.287626 2.3253987 10 0.21499456 0.59667385 -0.77314788 0.18127929
-0.57809949 -14.074444 2.2310686 14.5 0.92897618 0.0079698917 -0.3700538 0.21972534
10.331358 -14.222157 2.1583874 2 -0.2411304 0.95489293 -0.17330812 0.070773169
-6.9565511 -13.916174 2.4641559 3 0.95806164 0.070523985 -0.27774873 0.17888339
-0.28132135 -13.890859 2.2005639 12.5 0.88581955 0.09640307 -0.45390546 0.13718903
10.275472 -13.83463 2.115977 2 -0.27541146 0.94874883 -0.15499736 0.08418797
-7.0499601 -13.292614 2.3831229 7 0.94500172 0.020229917 -0.32643905 0.19287863
-6.7839665 -13.337297 2.3699825 7 0.94496572 0.020905618 -0.32650083 0.19287898
-0.95108235 -13.106712 2.0813608 22.5 -0.6850329 0.16749866 0.70899522 0.2146025
3.1146603 -13.04998 2.125006 13.333333 -0.12116239 0.98809874 -0.094764903 0.072731927
10.30081 -13.193179 2.0552394 2.5714285 -0.080345541 0.95745552 -0.27717033 0.21431084
10.756078 -13.102555 2.0814939 2 -0.32702184 0.9176836 -0.22564042 0.081282958
11.099088 -13.050434 2.1035464 2 -0.42137083 0.9053477 -0.052841228 0.075518988
11.541698 -13.004297 2.1349075 2 -0.32871959 0.94409746 0.024969134 0.049436331
-6.9195566 -12.514099 2.2648585 3 -0.87181038 0.48918959 -0.025304405 0.11465818
-4.834352 -12.669036 2.1477413 27.166666 0.2123545 0.96696645 -0.14100176 0.11540906
-4.2919869 -12.680352 2.1203132 18.75 -0.34138945 0.93589538 0.086907551 0.052642789
-1.126877 -12.773517 2.0310411 11.5 -0.45008925 0.1184745 -0.88508952 0.22269844
3.2046897 -12.958514 2.1142902 11.25 -0.12108831 0.98811615 -0.094678581 0.07272023
11.782228 -12.957687 2.1504254 2 -0.32871744 0.944098 0.024977917 0.049449824
-16.340748 -12.087143 2.4956408 28 0.91898197 -0.32282239 0.2264019 0.11942432
-16.385075 -11.810656 2.4800413 40 0.88734919 -0.33853278 0.31306064 0.12672918
-5.9001622 -11.906661 2.1046696 3 0.39117509 0.85898346 -0.33034757 0.15633996
6.9959908 -11.782738 2.170372 3 -0.99758333 -0.069190979 0.0063273231 0.010703145
7.0173721 -11.632967 2.1517563 4.5 -0.99837554 -0.056938805 0.0020396709 0.011660971
-5.6996775 -11.199821 2.4427369 8 0.83226711 0.52336204 0.18282132 0.10469616
0.33440223 -11.134216 2.1653006 27.285715 0.3508741 0.92595333 -0.13963482 0.05897665
0.93533802 -11.352944 2.2142749 23 0.35087273 0.92595446 -0.13963066 0.05897836
1.0919067 -11.342155 2.214911 34.400002 0.35086796 0.92595541 -0.13963625 0.058978077
6.9553394 -11.219742 2.0907991 6 -0.99964172 -0.013131119 0.023326667 0.016280893
7.0098162 -11.483921 2.1309505 6 -0.99919224 -0.026937479 0.029819937 0.014360082
9.913702 -11.384283 2.3909445 5 -0.89052123 -0.24363886 -0.38420305 0.048369631
-16.76815 -10.768787 2.4468927 11 0.5716421 -0.34343335 0.74517035 0.20391501
-16.244753 -10.628495 2.3836021 25 -0.45296025 0.87691617 -0.16076395 0.16950659
-15.636983 -10.704205 2.3268383 24.555555 -0.050661914 0.99247015 -0.11151835 0.12247904
-9.7099371 -10.607681 2.2776861 10 0.3909474 0.41417682 0.82195967 0.14729063
-8.079258 -10.525177 2.1015408 13.5 0.1866917 0.73415577 -0.65281057 0.171225
-0.18685797 -10.760281 2.4845843 14 0.38231432 0.78907382 -0.4808307 0.13631618
0.020778801 -10.823283 2.4987564 6 0.38202387 0.78891021 -0.48132998 0.13634239
6.8331428 -10.732839 2.2430298 19 -0.99837792 -0.051098388 -0.025108356 0.020853911
-13.058775 -10.198964 2.034487 15 -0.086866468 0.99615616 0.01127909 0.0086751431
-12.856153 -10.113163 2.0084071 27 -0.029544214 0.99938691 -0.018784469 0.010487494
-12.085546 -10.030968 2.4876213 38.666668 0.0025316223 0.99499804 0.09986306 0.070949167
-11.775937 -10.221342 2.4698224 35.444443 0.15842164 0.98471087 0.07243707 0.062120173
-8.2274609 -10.389338 2.0990379 15.6 0.36740622 0.68483186 -0.62929964 0.13895522
-7.9692602 -10.087216 2.4988348 34 0.92790103 0.17474936 0.32933608 0.14444561
6.8557858 -10.328224 2.4096997 36.142857 -0.99534339 -0.095212072 -0.015038881 0.019277537
7.144022 -10.254324 2.4293168 32.5 -0.96622288 -0.21065424 0.14845277 0.1391214
9.82969 -10.267059 2.2513158 12 -0.96667814 -0.11241153 -0.22999324 0.0298813
-12.08904 -9.9867163 2.4835539 33 -0.024599854 0.99968731 -0.0044900239 0.012058953
9.6201019 -9.6744022 2.1609077 5.25 -0.93014121 -0.08696162 -0.35675621 0.067820288
0.90691668 -9.145566 2.4625771 24.666666 0.07724347 -0.23688452 -0.96846229 0.0057531348
1.0840868 -9.1343365 2.4647338 16.75 -0.029166082 -0.25230268 -0.96720868 0.013505942
9.5634279 -9.3201017 2.1150568 4.1999998 -0.95074445 -0.078634858 -0.2998358 0.076553136
-6.7205949 -8.7521086 2.1449478 9.333333 -0.12772323 -0.031864326 -0.99129784 0.051732078
-1.5498048 -8.9081669 2.4228051 15 -0.073741868 -0.21525012 -0.9737708 0.014249431
-1.4338344 -8.8693447 2.4074054 11.5 -0.093098275 -0.23188302 -0.96827829 0.013918126
1.1700288 -8.9357767 2.4147818 19.333334 -0.011976553 -0.22734541 -0.97374052 0.015782557
2.3364179 -8.806448 2.4414916 19.4 0.062259343 0.32833064 0.94250876 0.021184208
2.6062865 -8.6707039 2.2606678 16.5 0.15819618 0.31158221 0.93695807 0.032152046
6.5644441 -8.7875414 2.1321542 6.8571429 -0.92998993 -0.079007782 0.35899371 0.061301373
9.4798813 -8.800004 2.048666 8 -0.8942064 -0.39510688 -0.21044134 0.027815178
9.5381374 -8.7922964 2.0546105 2 -0.8942076 -0.39510277 -0.2104436 0.02782166
-24.727665 -8.134819 2.2774668 15.75 -0.066595972 0.99647528 -0.0510104 0.033357132
-0.72169828 -8.0930567 2.1771858 12 -0.042836972 0.3541888 0.9341923 0.011592384
-0.31083125 -8.0565767 2.1603627 14.5 -0.049017269 0.29175267 0.95523703 0.013236989
0.3395853 -8.0558662 2.1606214 13.666667 0.11391824 -0.23964646 -0.96415365 0.0095533887
2.4720995 -8.1216068 2.2747607 24.5 -0.22520372 -0.15195546 -0.96238911 0.014361864
2.6670866 -8.2768707 2.070164 14.2 -0.33159488 -0.034634158 -0.94278592 0.026712611
6.4674916 -8.1472549 2.0220029 6 -0.93094277 -0.18848699 0.31275919 0.045412987
6.518456 -8.4179354 2.0695143 6 -0.93770963 -0.092623882 0.33484551 0.055986483
-24.832998 -7.9299998 2.2806914 9 -0.066594526 0.99647504 -0.051015817 0.03335705
-22.54974 -7.6282797 2.0826735 8 -0.029863123 0.99952525 -0.0075767115 0.040128384
-22.16464 -7.6338463 2.0509491 8 -0.029873855 0.99952507 -0.0075667854 0.040124822
-21.787819 -7.6768789 2.0210545 8 0.12300584 0.97939092 0.16019671 0.047261573
-0.54355383 -7.7604971 2.0845289 13.5 -0.047270432 0.30309111 0.95178837 0.012804795
-0.2810331 -7.7463608 2.0773251 16.75 -0.060958121 0.28681439 0.95604485 0.012509541
0.21133456 -7.6646137 2.054635 13.25 0.11391937 -0.23964299 -0.9641543 0.0095541663
2.4696991 -7.7713547 2.1849504 6 -0.20148101 -0.24756016 -0.94769162 0.017868908
6.8756995 -7.8132873 2.0230842 8 -0.74716258 0.15241775 0.64692891 0.07821396
7.014946 -7.8595829 2.0477622 6 -0.63818496 0.23799744 0.73217291 0.078620218
14.468178 -7.6605058 2.0101132 2 -0.32745481 0.46236092 -0.82401192 0.16866732
-12.234295 -7.1178079 2.2418313 36.599998 0.95330024 -0.26042569 0.15296121 0.098987669
0.52994347 -7.4477768 2.0006714 3 0.10056946 -0.24429986 -0.96447045 0.0090349643
1.7012343 -7.4638267 2.0512273 10.666667 0.038172513 -0.23911506 -0.97024059 0.0062411665
2.2698557 -7.4565034 2.0885403 13.5 -0.1261653 -0.25917599 -0.95755422 0.013551064
-12.565063 -6.9048481 2.270803 13 0.53005737 0.58581334 0.61307573 0.15491274
-12.307018 -6.9034438 2.2349796 30.5 0.96919811 -0.13699618 0.20466323 0.10895823
6.2487283 -6.7903738 2.1305566 4.4000001 -0.96973324 -0.17840441 0.16670102 0.019879598
6.1827288 -6.3119626 2.0399125 7 -0.96015298 -0.21124019 0.18298592 0.016916724
6.6837068 -5.7031784 2.028646 9.666667 -0.98360509 -0.13547382 0.11902972 0.014090505
5.9847207 -5.185823 2.1220286 3.6666667 -0.99073434 -0.10322031 0.088266656 0.024239298
6.010891 -5.2288995 2.1347394 4.5 -0.99073446 -0.10322028 0.088266216 0.024239318
8.9346075 -5.063787 2.3709841 6 -0.98889399 0.14549021 0.030352246 0.063128516
5.9348688 -4.7777658 2.0416164 5.6999998 -0.98884141 -0.11016975 0.10027581 0.028620087
8.7421217 -4.0326138 2.2226665 9.333333 -0.96846277 0.22456723 0.10793205 0.072626993
-11.889138 -3.7863631 2.4254115 8 -0.045040533 0.055729363 -0.99742949 0.0062755197
-9.9017162 -3.5483532 2.4283466 1 -0.28274065 0.94305921 0.17520592 0.026389342
8.860899 -3.7743285 2.2237697 33.785713 -0.82692361 0.53940988 0.15885299 0.10177495
-10.11442 -3.4102452 2.4642639 1 0.30944973 -0.94308984 -0.12174809 0.026685886
-9.8900509 -3.4517119 2.4183738 1.6666666 -0.28274065 0.94305921 0.17520592 0.026389342
-8.5949955 -3.2026384 2.4578321 3 -0.22698724 0.041167386 -0.97302723 0.008591827
-8.4291201 -3.253437 2.4209933 3 -0.14429626 0.93316448 0.3292152 0.019282505
8.8728838 -3.4356239 2.196692 28.200001 -0.5433653 0.83876085 0.035131838 0.050347168
9.2474947 -3.3615296 2.2716842 20.857143 -0.44085225 0.89311695 0.08939521 0.045035589
9.7866087 -3.2784855 2.2691514 20.200001 -0.26427531 0.96438915 0.010593003 0.015170029
10.087948 -3.1976113 2.2505453 6.125 -0.20730232 0.92392242 -0.32154816 0.15791306
9.8421307 -2.0220892 2.3196952 3 -0.98949039 -0.13410328 -0.054083712 0.093534842
16.700041 -2.163029 2.0676355 2 -0.15537775 0.98775601 -0.013999401 0.00091926922
17.128757 -2.1272953 2.119308 2 -0.13759997 0.99037683 -0.014839569 0.00069159095
17.714592 -2.0426846 2.1895046 2 -0.16475129 0.98633182 0.0025633909 0.00023247435
9.8570375 -1.9546083 2.3199952 3.6666667 -0.99489057 -0.088300429 0.048946913 0.065783098
18.327 -1.9230113 2.2626264 2 -0.16537817 0.98622614 0.0028270497 0.00026088551
19.136658 -1.805577 2.360122 2 -0.29823422 0.92172617 -0.24794589 0.097316362
9.6881704 -0.64223719 2.2416935 24.5 -0.98900551 -0.14785746 -0.0025135956 0.0023076416
9.6431704 -0.23342071 2.2271383 24.363636 -0.98174483 -0.19011095 -0.0059129382 0.002849702
9.4883919 0.021530084 2.1905735 10 -0.98844391 -0.1497497 -0.023528315 0.0062491922
9.6168213 0.22493526 2.2211666 2 -0.98844409 -0.14974974 -0.023520874 0.006249411
28.097092 0.3955811 2.458431 40 -0.4355033 0.83630985 -0.33305061 0.1349992
13.587864 0.87710333 2.1566057 3 -0.57378405 -0.21505058 -0.79026896 0.0098843528
27.999743 0.9826681 2.4511681 49 -0.69980943 0.16607575 -0.69475579 0.12214494
28.038048 0.73416054 2.4538698 42.5 -0.75705147 0.24219576 -0.60680658 0.15025158
-19.353834 1.3125961 2.3818147 4 0.32639906 -0.80683035 -0.49243116 0.10216466
-18.251616 1.3641236 2.2472711 19.5 0.18790226 -0.98071849 0.053701792 0.093550727
-17.788826 1.4514232 2.1914546 24.5 0.22195165 0.97294962 -0.06408143 0.090329714
9.3423061 1.2300566 2.1755018 6 -0.97047931 -0.22328936 -0.091168687 0.014922398
13.572581 1.2222344 2.1584828 3 -0.56262004 -0.22436535 -0.79568768 0.010920116
27.984198 1.0799459 2.4501221 39 -0.69980931 0.16607575 -0.69475591 0.12214494
-17.544941 1.7453333 2.1649358 18.799999 0.32760116 0.94473374 -0.012476782 0.078414291
-17.487711 1.6145948 2.1563563 16.5 0.26223201 0.96499366 0.0046453131 0.072320819
-14.582584 1.9663343 2.3305609 29.5 0.40290344 -0.9109441 0.088598333 0.054659072
13.614599 1.5970217 2.171154 3 -0.6014635 -0.20160626 -0.77304369 0.02353562
-18.604902 2.2401159 2.3009341 36.666668 -0.15412384 -0.70528823 -0.69196421 0.26731986
-14.253978 2.0208926 2.280189 31.5 0.56060117 -0.82670903 0.047733508 0.05326134
-13.809607 2.252372 2.216239 37.799999 0.62733847 -0.77500433 0.076253988 0.053931758
7.8743639 2.3970237 2.2055912 27.125 -0.39000106 -0.90104318 0.18979019 0.10539642
8.2536478 2.3529758 2.1925118 4.3333335 -0.093981653 -0.99553269 0.0090626655 0.01785206
8.7476015 2.4237106 2.2974746 6.1999998 -0.49833012 -0.85190618 -0.16100571 0.1174638
9.2531433 2.353744 2.2044203 2.8888888 -0.64767152 -0.72345394 -0.2390313 0.11360279
-13.765567 2.5662539 2.217824 39.666668 0.81345296 -0.54692972 0.19789395 0.10372549
7.8351207 2.6713843 2.2182202 30.727272 -0.71361488 -0.57025373 0.4068962 0.085622042
-18.957598 3.8013718 2.3740635 10.4 0.75775671 0.19441597 -0.62290227 0.10357925
7.4673738 3.8839815 2.2553494 20.5 -0.96271169 -0.25054562 0.10204458 0.0066651353
16.592846 3.6907001 2.0871346 2 0.17989214 -0.96144074 0.20801562 0.094684206
-19.018753 4.1571918 2.3903453 11 0.79356539 0.5331834 -0.29320556 0.075122133
-18.957598 4.2610421 2.385854 18.857143 0.75488508 0.53589326 -0.37810943 0.10138792
7.485518 4.4587221 2.0115123 1 -0.96061182 -0.11902076 0.25111529 0.044174805
7.5582681 4.3623271 2.0148115 1 -0.97813296 -0.20684981 0.021657353 0.0018243523
27.46562 4.3353724 2.4326911 39 -0.68523383 -0.15989001 -0.71055591 0.062387384
-19.035032 4.9240403 2.4141505 38.666668 0.98109633 0.19307354 -0.01313508 0.0089999856
-18.990376 4.6672149 2.4011309 36 0.87860161 0.35551727 -0.31885216 0.095557921
7.3869643 4.756319 2.0287588 3.5833333 -0.90963459 -0.0078500798 0.41533518 0.052129976
7.5133471 4.5109067 2.0232098 1 -0.9606173 -0.11902367 0.25109312 0.044164713
27.387171 4.7634268 2.432081 49 -0.68538421 -0.15996842 -0.71039325 0.062372066
-19.100569 5.2622433 2.4326746 31.833334 0.9782939 0.20719355 -0.0034396471 0.0068028001
7.2526164 5.2420468 2.0661755 19.071428 -0.85404551 -0.046804927 0.51808828 0.049762789
27.311504 5.2396045 2.4330397 41.5 -0.53160715 -0.075073868 -0.84365731 0.064679354
-19.261763 5.7419009 2.4679356 12.333333 0.97340304 0.21258622 -0.085402496 0.0064207604
7.1877885 5.6602087 2.1803489 8.1000004 -0.54085773 -0.15186131 0.82729137 0.029164348
-19.332115 6.1261625 2.4900346 16.25 0.98041946 0.17942253 -0.081149429 0.0097298129
4.1825128 6.3206081 2.0308883 6.75 -0.95480287 -0.16290671 0.24862193 0.041927882
4.1184778 6.6147728 2.0879579 3.75 -0.95481586 -0.16291445 0.24856693 0.041923787
8.1053581 6.8582134 2.4512916 1 0.23109069 0.056956973 -0.97126359 0.030271539
-22.736395 7.2382793 2.0875542 8 -0.046834525 -0.64115077 0.76598448 0.10027412
-22.418205 7.3100781 2.0629764 16 -0.046833683 -0.64116794 0.76597023 0.10027444
8.0813961 7.0810652 2.480648 1 0.21600924 0.063220695 -0.97434247 0.036017887
10.240263 7.0064039 2.4118259 34 -0.25150415 -0.095046923 0.96317786 0.014181457
3.9415596 7.8276067 2.0233595 8 -0.9638378 -0.2414261 0.11282773 0.055541832
6.8674965 7.7781386 2.1292825 7.5999999 0.19114812 -0.0094429972 -0.98151582 0.041293278
-15.056581 8.4492874 2.1199174 18 0.48756871 -0.87293828 0.015986802 0.026372584
-14.868776 8.4809055 2.101759 18 0.31965777 -0.94752014 -0.004941815 0.02165997
3.8448479 8.247838 2.262167 22.047619 -0.96921146 -0.21893121 0.11268622 0.036426894
4.1519666 8.2373066 2.4717867 22 -0.95444745 -0.27375174 0.11870108 0.050775085
6.7980156 8.2113085 2.1503487 8.6000004 -0.87240893 -0.36246461 -0.3279056 0.057216864
-14.747386 8.6845083 2.101434 20.666666 0.19428226 -0.97970259 0.049367804 0.080898985
3.7543161 8.5765371 2.2478049 18.25 -0.959988 -0.24771012 0.1306241 0.032220084
6.8024907 8.8222666 2.1654913 22.5 -0.79751194 -0.15292692 -0.58359915 0.057164211
-3.4260225 9.341835 2.2972002 4.5 0.1118398 -0.2800712 0.95344216 0.10955613
-2.2675185 9.4521379 2.2441118 1 -0.081070751 0.11189627 -0.99040735 0.094782338
6.7356925 9.154933 2.2093501 22 -0.79752713 -0.15294774 -0.58357304 0.057161167
-3.0966864 9.9038258 2.2044122 4.5 0.11185902 -0.28009799 0.95343202 0.10955712
3.6247439 9.8245258 2.0355506 6 -0.97056276 -0.14414476 0.19295147 0.018094271
-3.5844004 10.043976 2.0729489 6 -0.091267452 0.15800133 -0.98321205 0.10564175
-3.2598512 10.242731 2.2860146 9.5 -0.091255248 0.15798326 -0.98321599 0.10564191
-2.8954067 10.064318 2.417774 6 0.11184856 -0.28008378 0.95343739 0.10955689
-1.2461143 10.39558 2.2263689 7.5 0.44833207 -0.50745571 0.73585808 0.11655304
-0.73519194 10.331991 2.0134168 24.5 0.4483456 -0.50747585 0.73583591 0.11655143
3.5493062 10.045281 2.0709136 6 -0.98359001 -0.11145585 0.1418746 0.022340262
6.4495506 10.214056 2.3480957 8 -0.53433728 -0.05608432 -0.84340864 0.083228707
6.5420747 10.241366 2.3622153 8 -0.15310323 0.045542605 -0.98716021 0.1272922
-1.7491742 10.88647 2.1434212 7 0.30160698 -0.45246467 0.83923113 0.12903506
-1.2686824 10.590886 2.0734942 13 0.448351 -0.50747865 0.73583078 0.11655007
6.349894 10.967408 2.0072107 2 -0.22712913 0.10384239 -0.9683125 0.10005283
-20.015505 11.090205 2.0019674 40 0.9108429 0.010170862 -0.41262794 0.065794632
6.2871222 11.261642 2.0428557 4.2857141 -0.20771404 0.073399432 -0.97543186 0.081991971
10.356084 11.074567 2.4014781 3 -0.23035474 -0.18399303 0.95555395 0.026186774
-24.791986 11.777005 2.401315 9 -0.0030181077 -0.034869764 -0.99938726 0.033468034
-24.319086 11.859116 2.3671501 9 -0.0030193862 -0.034869619 -0.99938726 0.033468675
-23.756809 11.942686 2.3263173 9 -0.027536614 0.018201543 -0.99945509 0.037979163
-7.5458436 11.89952 2.2316945 6 0.0073384102 -0.95010048 -0.31185788 0.12257218
-7.3151817 11.895985 2.211921 13.8 0.0073384983 -0.95010042 -0.3118577 0.12257273
-1.6914966 11.538406 2.2668109 8 0.32821482 -0.38216782 0.86384189 0.078608282
6.445632 11.978302 2.1544156 3 -0.19929819 -0.033008941 -0.97938275 0.074842803
-9.6071634 12.452713 2.4910626 9 0.7735728 -0.63089424 -0.059644721 0.15059376
-7.2247472 12.221242 2.2485893 9 0.0073174876 -0.95009869 -0.31186348 0.12257233
3.2103219 12.351518 2.0212898 5 -0.88498831 -0.38215101 0.26600048 0.12649809
-20.625685 12.915976 2.1291275 8 0.62469178 -0.068446331 -0.77786577 0.0582752
3.1382146 12.606222 2.0575829 3 -0.7196359 -0.53080463 0.44762781 0.090967394
-20.530609 13.009027 2.1264257 8 0.56898034 -0.1678004 -0.80504936 0.075639918
-20.383152 13.217114 2.1254146 44 0.46557769 -0.27885407 -0.83992726 0.076245598
-20.439133 13.714251 2.1534441 45 0.54790819 -0.047786735 -0.83517241 0.10676469
-1.3034836 13.888191 2.2094285 15 0.15926696 -0.84852117 -0.50462431 0.087896481
-0.91400069 13.828357 2.1949844 6 0.22980028 -0.82937336 -0.50924611 0.10540725
5.8570294 13.919707 2.3918834 3 -0.37019342 -0.12910196 -0.91993994 0.023368225
-23.186405 14.247634 2.3809204 9 -0.019831413 0.023051292 -0.99953753 0.037771039
-20.50013 14.110431 2.1773245 61 0.6366086 0.09852659 -0.76486737 0.10877707
-20.319412 14.178746 2.1677728 36.200001 0.549164 0.094431169 -0.83036244 0.10959377
-19.70553 14.336356 2.1320326 31 0.29397991 -0.17807817 -0.93907613 0.14856777
-1.5408007 14.276107 2.2742445 3 0.60038275 -0.79151309 -0.11422592 0.097961619
-1.0819712 14.122969 2.243427 9.5 0.50578457 -0.80588907 -0.30777389 0.14528637
-0.66861653 14.230145 2.2563586 19.833334 0.72362167 -0.68799353 -0.05510528 0.16835237
-19.557396 14.649512 2.1378431 16.5 0.28715485 -0.19640955 -0.93753147 0.11903247
-0.31297141 14.939871 2.3667912 50.200001 0.91390109 -0.40064701 -0.065321393 0.085239321
2.8247125 14.673685 2.3668091 21.857143 -0.96540028 -0.25994113 -0.020806922 0.11246902
3.1462469 14.567413 2.360492 31 -0.98591864 -0.16434091 -0.03092864 0.11332284
5.7284031 15.467309 2.0252249 15.5 -0.18802513 -0.0060195052 -0.98214585 0.087647572
-20.783442 15.846382 2.2865601 48.666668 0.94793302 0.31758296 0.023748219 0.035686307
5.5819931 15.653651 2.0405805 3.3333333 -0.18802528 -0.0060268803 -0.98214567 0.087644771
-20.849144 16.248468 2.3125904 55.666668 0.95027232 0.30916983 0.037369631 0.027986381
2.5583022 16.344694 2.0313184 2 -0.97892231 -0.19993246 -0.041691046 0.0055536111
5.5468984 16.453773 2.1319826 2 -0.23962285 -0.038197007 -0.97011441 0.061651345
-20.922661 16.716393 2.3430078 46.75 0.95027071 0.30917507 0.037368629 0.028014356
-11.115582 16.992868 2.4932032 15 -0.55085135 -0.81322283 -0.18770017 0.20491058
-9.7065535 16.934883 2.3966827 2 -0.378203 -0.90966594 -0.17166936 0.14700672
-9.2775841 16.926483 2.3701153 5.5 0.25117981 -0.93179297 -0.26205075 0.21360311
5.436233 16.505297 2.1336887 6 -0.23962359 -0.038198538 -0.97011417 0.061651327
5.5120182 16.540834 2.1407571 2 -0.23962359 -0.038198538 -0.97011417 0.061651327
-21.036243 17.402813 2.3885903 38 0.608486 0.071513459 -0.79033571 0.036078379
-20.990536 17.122606 2.3699389 42.5 0.6199438 0.10825684 -0.77714229 0.039873708
-11.04477 17.079144 2.4973466 13.5 -0.55085135 -0.81322283 -0.18770017 0.20491058
-10.840934 17.213478 2.4978342 5.25 -0.55103463 -0.81307811 -0.18778947 0.20493317
-9.9084721 17.010794 2.4171569 20 -0.21439597 -0.92003036 -0.32799166 0.082510263
-9.2027769 17.092041 2.3836021 6.3333335 0.55311334 -0.82307768 -0.12887543 0.1914126
-8.8166285 17.234621 2.3771024 12.666667 0.63617027 -0.76883984 -0.064595416 0.12118785
-7.6374364 17.356926 2.3283749 46.25 0.09673465 -0.96502113 -0.24367328 0.083370745
-7.2902203 17.378593 2.3140552 25.5 0.1005964 -0.94872922 -0.29965535 0.069553852
-21.096323 17.760864 2.4127033 39 0.571904 0.13617682 -0.80893868 0.035868719
-8.7897882 17.683643 2.4247127 11 0.16942093 -0.92456847 -0.34127665 0.18060216
-7.4520445 17.504925 2.3359919 9 0.037786692 -0.96270287 -0.26790899 0.069732428
-21.149921 18.124611 2.4368744 34 0.56695282 0.15176044 -0.80965012 0.03684612
5.1541729 18.39819 2.3459849 2 -0.30436027 -0.032885697 -0.95198917 0.012142541
-12.232738 20.338444 2.0764854 8 0.53698105 0.15559056 -0.82912177 0.10851001
-12.686798 20.9319 2.1414165 25 0.55254632 -0.061112855 -0.83123869 0.1447244
-11.956124 20.588181 2.0829351 8 0.32754201 0.21359447 -0.9203769 0.09820088
-11.11086 20.678326 2.0537379 8 0.36173341 0.13655353 -0.92222667 0.10199427
-9.4047794 20.858379 2.0017929 8 0.22692509 -0.14743459 0.96268797 0.088694885
-12.938657 21.006828 2.158499 17 0.53199393 -0.26585683 -0.80392951 0.15965043
-11.427135 22.388355 2.1991136 8 -0.1069733 -0.20349367 0.97321486 0.06182554
-6.7245374 22.966362 2.0936551 8 -0.20721056 -0.12333947 -0.97049016 0.02711229
-6.3743591 22.792713 2.0706463 8 -0.10375894 -0.22642875 -0.96848547 0.043798868
-5.054163 22.89212 2.0510361 28 0.16294722 -0.25681022 -0.95262629 0.083500929
-4.7289691 22.908911 2.046562 59.166668 0.1664183 -0.22841167 -0.95923567 0.084130101
-8.0779247 23.301317 2.1576276 8 0.50276011 -0.13815792 0.85331386 0.098920591
-6.0174613 23.18432 2.0955727 8 -0.040448699 -0.2920422 -0.95554972 0.049120348
-5.7282124 23.409288 2.1084716 8 -0.12443829 -0.32387403 -0.93788099 0.10349477
-4.004406 23.231358 2.0624535 8 0.35248902 -0.075829379 -0.93273866 0.12635845
-1.1527518 23.402126 2.0499029 8 0.17141065 0.07802432 -0.98210526 0.19481596
-8.0651875 23.556477 2.1783707 8 0.44476894 -0.16707228 0.87992465 0.08101318
-6.0754514 23.731075 2.1431599 34 0.1542414 -0.13277408 0.97907132 0.034512632
-5.9604306 23.659559 2.1346183 8 -0.052552447 -0.055559985 -0.99707139 0.084037468
-4.246418 23.647991 2.1020222 16 0.23474447 -0.40507266 -0.88363516 0.07970006
-7.2822881 24.24238 2.2145691 14 0.36604601 -0.107309 0.92438906 0.060471687
-6.7698293 24.197823 2.1983292 8 0.26380882 -0.11314102 0.9579165 0.039965097
-5.8149967 24.128372 2.1713982 8 -0.052552491 -0.055562373 -0.99707127 0.08403711
-5.4819283 24.226646 2.1731412 8 0.035649214 -0.008778248 -0.99932581 0.08766149
0.82617372 27.258539 2.3859174 28.333334 -0.98609179 -0.1480094 -0.07560569 0.0024047415
1.1536752 27.211306 2.382838 28.25 -0.98553711 -0.15119518 -0.076528288 0.0024232052
-13.841126 -28.593777 2.7793095 11 0.99720901 0.0054935296 0.074458301 0.14042796
-14.032022 -26.501884 2.6235621 53 0.74236357 0.64805138 0.17007565 0.13825269
-13.027748 -26.557747 2.5880027 21 0.96500593 0.21627392 0.14828737 0.15967642
-14.32285 -26.373531 2.6257234 10 0.74241173 0.64800948 0.17002532 0.13817365
-13.719078 -26.45476 2.6072204 50.25 0.74238837 0.64802527 0.17006686 0.13824797
-13.247258 -26.430857 2.5866079 39.25 0.74236315 0.6480512 0.17007829 0.13825238
-14.471241 -25.781176 2.5866079 10 0.92715102 0.25334406 -0.27605754 0.10437945
3.7599125 -24.064804 2.990674 10.75 0.21672256 0.92265975 0.31895199 0.17744561
2.0792913 -23.577705 2.9062185 19.5 0.41947356 0.80845934 0.41283822 0.075439855
3.8569901 -23.999502 2.9845805 17 0.21673374 0.92264783 0.31897876 0.1774385
4.2871528 -23.542982 2.9382701 16.5 -0.85216469 0.085289128 -0.51627624 0.18606745
4.3984299 -23.390429 2.9223459 22.666666 -0.94701439 0.23152217 -0.22262354 0.060488459
4.5641565 -23.24222 2.9082901 5 -0.94700664 0.23155189 -0.22262561 0.060487118
-6.0562387 -22.633801 2.876848 2 -0.21118338 0.92583108 -0.31342992 0.15809815
-6.547821 -22.14065 2.8349247 5 0.65129918 -0.081423238 0.75443989 0.2366901
-6.351563 -22.327133 2.8502195 11.25 -0.42552006 0.34869722 -0.83507067 0.18097842
-4.1598001 -22.015158 2.750957 8.5 -0.45586884 0.85596865 -0.2439288 0.12907887
-7.2197104 -21.879704 2.8290265 8.3999996 0.96915478 0.20450194 0.13754293 0.11445706
-6.7818899 -21.810724 2.8045187 9.75 0.95544499 0.017808048 0.29463151 0.19117677
-4.5640211 -21.846748 2.7403543 15 -0.58643335 0.7646718 -0.26715723 0.10571764
-4.3628221 -21.833494 2.7338343 21.25 -0.4558453 0.85597688 -0.24394418 0.12909208
-0.31632349 -21.57749 2.6496835 7 0.025971156 0.98501039 -0.17052898 0.10448027
-4.6507416 -21.170403 2.6613829 2 -0.52131099 0.80341119 -0.28768972 0.11753076
-3.7123783 -21.032492 2.6223848 11 -0.66669583 0.71969467 -0.19379452 0.10721283
-0.64794564 -21.29052 2.6153772 22.25 0.0086220093 0.99778855 -0.06590718 0.10398192
-0.45819044 -21.168036 2.5997169 9 0.025972323 0.98500794 -0.17054261 0.10447802
0.30250263 -21.167696 2.5993922 18.666666 0.1283883 0.96483648 -0.22936244 0.10529499
0.7961241 -21.223719 2.6078091 12.4 -0.15664366 0.88597268 -0.43648046 0.13098569
1.0209845 -21.255682 2.6128788 4 -0.18927035 0.8960799 -0.40151897 0.12067342
-10.799706 -20.552984 2.8507679 8 0.52174795 0.26260328 -0.81167644 0.034334358
-3.6876264 -20.91206 2.6073337 12.25 -0.76710504 0.63086516 -0.11644311 0.11083686
-3.217798 -20.734808 2.5763996 3.3333333 -0.80061698 0.56822723 -0.19007951 0.08804784
-0.08677835 -20.691013 2.5405698 9 0.025956074 0.98499304 -0.17063117 0.10455731
0.13017787 -20.718 2.5439007 14 0.025958925 0.98500025 -0.17058918 0.10447215
0.56723768 -20.962841 2.5748556 2 -0.15664157 0.88597333 -0.43647993 0.13098587
-11.609797 -20.092537 2.8493054 19.5 0.28843376 0.15802048 -0.94437039 0.045894854
-11.285663 -20.256882 2.8472745 18 0.34383532 0.21661125 -0.91370499 0.045083795
-10.627007 -20.396902 2.8239567 2 0.53356928 0.24057811 -0.81081814 0.039370235
-7.0282907 -20.092331 2.6136103 12.5 -0.88277179 0.36322781 0.29795888 0.18272689
-12.247265 -19.743673 2.8527992 28 0.22753145 0.2590304 -0.93868673 0.020638922
-11.890256 -19.934214 2.8499756 24 0.2884365 0.15802111 -0.94436944 0.045895219
-7.1769109 -19.967268 2.6052418 18 0.98693979 -0.07617867 -0.14193904 0.17929755
-6.8481712 -19.911112 2.5853364 9 0.55468875 -0.032791506 -0.83141154 0.18494377
-13.271837 -19.09915 2.8557034 26.25 0.25395888 0.30209374 -0.91882765 0.015816091
-14.029368 -18.556881 2.856374 30 0.38217169 0.25072381 -0.88942814 0.053319599
-13.734528 -18.768467 2.8557036 28.875 0.33462575 0.302708 -0.89240873 0.04117484
-13.436119 -18.983536 2.8556428 27 0.23046236 0.19569078 -0.953201 0.012836802
11.053243 -18.675131 2.6645515 5 -0.70346671 0.61041319 -0.3640472 0.060056385
-14.641296 -18.095009 2.8580191 22.25 0.59856892 0.41776359 -0.68351209 0.076532319
-14.282847 -18.357487 2.8559563 27.428572 0.54295331 0.33494338 -0.77007443 0.083621502
1.979965 -18.496452 2.9462872 4 -0.25523028 0.92410761 0.28439862 0.058769211
2.0966957 -18.354937 2.926055 6.6666665 -0.19085339 0.94644272 0.26042473 0.047378138
3.4655321 -18.340797 2.9562988 4 -0.049123839 0.94539303 0.32220921 0.029450713
3.6775048 -18.28779 2.9545469 10.4 -0.09938027 0.96359313 0.24821754 0.034416009
10.970939 -18.172712 2.60642 3 -0.65537858 0.56850046 -0.49727872 0.082498595
11.020725 -18.472778 2.6411526 2 -0.70963866 0.52085733 -0.47446877 0.072762363
-15.205471 -17.640509 2.8596239 28 0.86050653 0.36955374 -0.35065451 0.069958948
-14.889105 -17.894234 2.8582628 24.75 0.7740286 0.31897146 -0.54693413 0.096004076
-1.1554186 -17.580433 2.7904785 6 0.062042419 0.044973768 -0.9970597 0.037057575
10.904674 -17.714371 2.5541379 3.6666667 0.3749769 0.84283829 0.38602594 0.084381953
-15.537026 -17.16098 2.8424199 29.25 0.93745917 0.31350043 -0.15128717 0.023323925
-15.457294 -17.43449 2.860883 34 0.91059655 0.29626587 -0.28816736 0.053546097
-1.5191622 -17.225592 2.7388551 8 -0.23648748 0.017382758 -0.97147906 0.012247541
-0.97131461 -17.158308 2.7219601 8 0.008180513 0.052810047 -0.9985711 0.0271933
10.885345 -17.413429 2.521477 2 -0.72840524 0.03601395 -0.68419939 0.088885836
-15.605316 -16.706049 2.8069925 38.200001 0.93517476 0.33235371 -0.12243041 0.019875009
-15.729249 -16.203482 2.7728121 23 0.95970953 0.25821945 -0.1108174 0.0091671571
-7.1162987 -16.013548 2.7754605 8 0.44621465 0.6161707 -0.64901948 0.15188226
-6.4846849 -16.147633 2.7560627 16 0.60359365 0.33456179 -0.72370106 0.091811657
-15.866409 -15.732404 2.7435231 17.6 0.9772622 0.16752011 -0.12998262 0.01220206
-6.7617464 -15.795381 2.7214909 11 0.73159921 0.17786933 -0.65812242 0.10679091
-6.4865389 -15.760946 2.6994333 8 0.69135815 0.1896942 -0.69716573 0.1056906
-15.942492 -15.2675 2.7103744 17.799999 0.98835558 0.11859672 -0.095331296 0.015074178
-7.1644783 -15.182946 2.6590731 20.833334 0.74228323 0.32578319 -0.58556038 0.20292182
-6.6473351 -15.37581 2.6531289 7 0.77421546 0.15936835 -0.61252916 0.1081307
-2.8153818 -15.000422 2.9666984 8 0.51134509 0.27370733 -0.81462294 0.1274343
-16.004936 -14.903976 2.6852694 20 0.99078387 0.11147394 -0.076946639 0.015521714
-15.946373 -14.722202 2.6648562 33 0.99077994 0.1115075 -0.076948516 0.015517923
-7.2843051 -14.961539 2.6356082 3 0.46287379 -0.34562525 -0.81626648 0.18285652
-6.6363907 -14.656957 2.5483177 11 0.75497395 -0.023280261 -0.65534127 0.097631067
-3.1550663 -14.806866 2.9428473 8 0.16613005 -0.17614911 -0.97024339 0.18579054
-2.7180119 -14.948563 2.953469 14 0.51133293 0.27369672 -0.81463403 0.12743673
-2.3404732 -14.862126 2.9245296 16.5 0.44684312 0.17870919 -0.87658101 0.095059246
-0.35437793 -14.757431 2.8693857 25.5 -0.33777159 0.26307181 0.9037165 0.15490505
1.9965429 -14.766741 2.8964806 8 -0.44429445 0.019762246 -0.89566278 0.078452803
2.0650747 -14.882193 2.9205227 8 -0.36497325 -0.069027163 -0.92845565 0.07647039
-15.973326 -14.422939 2.6424932 26 0.98699874 0.13908912 -0.080546468 0.0089191506
-11.681491 -14.17948 2.9098065 6.4000001 0.78984648 0.1440803 -0.59614056 0.023667056
-7.6134043 -14.175234 2.5484743 9 0.98318821 -0.14553991 0.11026848 0.1502986
-3.6807556 -14.419065 2.8926644 16.5 -0.39824364 0.38060093 -0.83459264 0.19016027
-2.8186076 -14.195999 2.813288 8 0.26295745 0.70397884 -0.65974784 0.13997628
-1.0254209 -14.411153 2.808327 34 -0.53710443 0.62880635 -0.56224668 0.19564921
4.9298158 -14.26842 2.9343882 22.333334 0.90793866 0.40186316 0.11896842 0.15787859
-11.777225 -13.718938 2.8637941 10 0.73965716 0.13242601 -0.65982622 0.03890517
-6.7219019 -13.794159 2.9827263 8 0.56547928 0.60472524 -0.56083912 0.17000563
-6.3661246 -13.920123 2.9753485 34 0.52995312 0.16546263 -0.83172816 0.12643203
-0.70759785 -13.640242 2.6551073 12.25 0.80422157 0.45504194 0.38231468 0.23976687
-0.25830141 -13.698071 2.6631849 19.333334 0.96399724 0.24476016 -0.10393149 0.19549172
5.08675 -13.78851 2.8567924 34 0.88745481 0.40657747 0.21706855 0.16766988
-12.25218 -13.228703 2.8559721 31.333334 0.59850913 0.11323525 -0.79307288 0.056192216
-11.847439 -13.463017 2.8404331 13.333333 0.63076895 0.13453941 -0.76421833 0.05160309
-7.2085047 -13.298622 2.9403667 21 -0.56687057 0.80371392 0.1808359 0.17053154
-6.8791447 -13.128356 2.8810251 29.75 0.853598 0.36364827 -0.37300193 0.14705512
-6.1977816 -13.429144 2.8751101 8 0.58718449 0.613343 -0.52822798 0.10748989
-1.2485346 -13.31734 2.6000268 22.333334 0.63473862 0.34242898 0.69271153 0.21326067
-0.80699837 -13.37063 2.6039705 25 0.93092728 0.36477396 -0.017729102 0.18280773
3.1229789 -13.028172 2.6041613 8 0.23145507 0.95358294 0.19263484 0.078258395
3.6504333 -13.371235 2.6942232 34 0.44493574 0.88547784 -0.13401987 0.058934581
10.32586 -13.185566 2.6526072 3 -0.33894512 -0.059691809 -0.9389106 0.20149361
10.681279 -13.113799 2.6788883 3.6666667 -0.26391292 0.04320221 -0.96357852 0.23250842
11.050272 -13.138901 2.7191441 4 -0.22321711 0.87881947 -0.42172316 0.20199329
11.788394 -13.019041 2.781718 4 -0.22891107 0.97029215 -0.078312293 0.047709305
-16.360445 -12.594792 2.5351264 20 0.99755853 0.041307546 -0.056308974 0.087048024
-12.76289 -12.734315 2.8557255 37.363636 0.51816833 0.14137602 -0.84351313 0.036725506
-12.489244 -12.991854 2.8543036 37 0.56000441 0.13393033 -0.81759262 0.047131687
-4.8090372 -12.662255 2.6328914 37.142857 -0.2119628 0.92792487 -0.30663848 0.13251662
-3.9052196 -12.612764 2.5665338 23.6 -0.043050531 0.93428355 -0.35392225 0.097366616
-3.0408628 -12.531137 2.9770021 22 -0.20624095 0.34675479 0.91500038 0.061617646
-2.9898551 -12.511349 2.9698038 16 -0.2062345 0.34676844 0.91499674 0.061613575
2.8614712 -12.928565 2.5738862 25.333334 -0.46626487 0.43886039 -0.76811367 0.21953519
3.2573521 -12.715854 2.8671703 19 0.23142469 0.95359427 0.19261496 0.078250393
-16.392021 -12.348002 2.5198522 18.666666 0.91894364 -0.32289159 0.22645865 0.11940923
-13.217543 -12.259601 2.8554609 35.400002 0.2856878 0.24779584 -0.92573196 0.015164968
-4.1159167 -12.139016 2.9592311 15.5 -0.19724226 0.60465521 -0.77167845 0.12613398
-3.786634 -12.061028 2.918515 9 -0.004777587 0.2038739 -0.97898543 0.17022932
-3.2313092 -12.282918 2.9323497 8 0.30849361 -0.070124879 -0.94863802 0.060884256
-2.9381301 -12.487564 2.9617054 13 -0.20624445 0.34675202 0.91500074 0.061615817
-19.314617 -11.789762 2.7784748 2 0.82337445 -0.30990034 0.47541162 0.12148149
-5.7668767 -11.632587 2.5237672 16.666666 0.57457018 0.42500374 -0.69945765 0.16359963
-4.1552067 -11.979271 2.9272881 8 -0.24424009 0.55448574 -0.79554528 0.10596652
-3.9669778 -11.904363 2.8969195 16 -0.212127 0.25317374 -0.94387782 0.12667945
-3.2629967 -11.985023 2.867676 16 0.14959481 -0.051426318 -0.98740906 0.06752938
0.30949077 -11.818955 2.7295561 16 -0.29479787 0.83599973 -0.46281597 0.14614131
-14.304549 -11.043843 2.8622818 37 0.06401068 0.81376755 -0.57765484 0.11772823
-7.9198456 -11.009462 2.6362174 25 0.18566243 0.77001816 -0.61041099 0.15363255
-5.4497652 -11.031615 2.840682 20 0.83227521 0.52337676 0.18274233 0.1046754
-3.0365953 -11.468738 2.7390041 13 0.0079045985 -0.14252737 -0.98975933 0.058282904
-2.7524261 -11.006635 2.6193302 6 -0.042525563 -0.13395275 -0.99007487 0.03033381
0.44202942 -11.078688 2.7655034 18 0.47658333 0.81653613 -0.32578689 0.19297329
0.54061502 -11.053666 2.5549941 21.5 0.47646609 0.8165884 -0.32582724 0.19295709
1.2142143 -11.395755 2.6458743 22.428572 0.47628456 0.8166551 -0.32592544 0.19293389
19.762186 -11.455738 2.8047013 2 -0.063652247 0.28120014 0.9575358 0.032015771
-17.387894 -10.907368 2.5202582 2 0.91319817 -0.051294316 0.40427455 0.16617334
-15.614406 -10.607553 2.9897759 17 -0.017642846 0.91289204 -0.40781963 0.085961029
-15.256216 -10.553373 2.9381523 15.25 0.062129822 0.88115191 -0.46873355 0.074462116
-14.405083 -10.7252 2.8445656 14.75 -0.089378506 0.91915023 -0.3836332 0.068161227
-9.7321119 -10.699202 2.8113799 8 0.28957951 0.52249652 0.80196077 0.18893071
-7.8878074 -10.964691 2.6255317 29.5 0.18568733 0.77001864 -0.61040282 0.1536306
-5.3862162 -10.76072 2.7781456 9 0.83229357 0.5233562 0.18271764 0.10468408
-2.7051301 -10.980225 2.6107819 7 -0.028480243 -0.14140186 -0.9895426 0.025120672
0.14511804 -10.861176 2.641566 7.6666665 0.42483467 0.8026756 -0.41860175 0.15756005
0.54452837 -10.820732 2.9030869 8.333333 -0.34358859 0.16889825 -0.9238075 0.15899152
6.8199806 -10.680957 2.9257133 16.333334 -0.99320048 -0.11618239 -0.0073811654 0.08460632
-14.699211 -10.4727 2.8586054 14 0.000315304 0.88104862 -0.47302565 0.062142968
-13.034223 -10.172465 2.6187134 11 -0.11548068 0.99234772 -0.043706413 0.015317076
-12.685237 -10.079815 2.5662293 36 0.018266981 0.99466717 0.10150632 0.065247349
-12.348771 -10.026512 2.5193772 42 0.0082873544 0.99813014 0.060560767 0.073681541
-8.1403828 -10.185534 2.5345542 25.4 0.63504881 0.57043129 -0.52088493 0.16269474
-7.7395272 -10.252866 2.7550666 17 0.26208821 0.49210474 -0.83014613 0.16538386
-7.1550632 -10.238129 2.883744 20 0.17993568 0.14186738 -0.97339445 0.12279245
-6.1680112 -10.075505 2.7275314 9 -0.12549591 -0.10503174 -0.98651868 0.074730761
-5.9503908 -10.24094 2.7345052 7.5 0.46579066 0.27792373 0.84011751 0.065584473
-1.1455243 -10.02619 2.7040675 17.142857 -0.030585051 -0.1480034 -0.98851377 0.017431995
3.8924077 -10.188007 2.9223261 17.5 0.76001436 0.44497249 0.47368523 0.08737988
6.8479047 -10.324365 2.8602848 30.142857 -0.99752098 -0.067618892 0.019483205 0.078948624
7.1133337 -10.25665 2.8817132 29.6 -0.98450518 -0.11975203 0.12809749 0.1574616
9.8103838 -10.25176 2.7582259 26.428572 -0.78611732 -0.0053993543 -0.61805379 0.061293341
-9.5541325 -9.6614552 2.6411784 8 -0.13175459 0.40095928 -0.90657181 0.18429381
-9.3931513 -9.8194828 2.6414645 10.25 -0.1317421 0.40095505 -0.90657538 0.18429649
-6.0863557 -9.9456768 2.6919892 17.75 -0.10716415 -0.13861831 -0.98453081 0.066722572
-2.002327 -9.5264435 2.6083784 16 -0.10072143 -0.20424075 -0.9737252 0.011042283
-1.9671075 -9.5239162 2.6057904 4 -0.10072568 -0.20423642 -0.9737258 0.011042537
-1.2407926 -9.9901199 2.6974123 20 -0.028119737 -0.16025017 -0.9866758 0.016762523
0.78071797 -9.6662893 2.5985432 11.5 0.053820726 -0.094339631 -0.99408418 0.035350841
3.957623 -9.8897543 2.8542566 8 -0.69691861 -0.42146918 -0.58023113 0.095745154
4.0335073 -9.8298025 2.8470097 4 -0.69691896 -0.42147002 -0.58023006 0.095745571
9.6554728 -9.8151941 2.6762872 8 -0.81165677 -0.10637944 -0.57436633 0.079476029
-9.4017019 -9.3754854 2.5808828 25 -0.096551187 0.31919637 -0.94275743 0.15245868
-8.8550663 -9.0109797 2.9167154 15 0.34400669 0.033317853 -0.93837589 0.11482203
-6.2940192 -9.1116638 2.9676192 7.3333335 0.24652269 0.18495132 0.95132512 0.039441392
-2.08671 -9.2933655 2.5523441 7 0.062942266 0.258293 0.96401399 0.01047803
-1.6229409 -9.3278713 2.5369444 11 -0.10053807 -0.19083144 -0.9764607 0.012917839
0.8873809 -9.3904037 2.5274544 17.666666 0.12642689 -0.17088802 -0.97714561 0.013382184
1.0189136 -9.2886496 2.5038157 11 0.012540667 -0.18429352 -0.9827913 0.014321032
-6.7553062 -8.7407999 2.8570261 19.625 -0.24204649 -0.12710807 -0.9619028 0.03486798
-6.4737625 -8.6965084 2.904985 17 -0.24204136 -0.12710373 -0.96190464 0.034868896
9.4877958 -8.8104324 2.5167708 8 -0.83003753 -0.32528853 -0.45301789 0.052011888
9.5112734 -8.770606 2.5148625 8 -0.83003712 -0.32528561 -0.45302069 0.052007772
-20.355072 -8.0835609 2.6891689 5 0.34264576 0.93500322 0.091449074 0.038399357
-19.970657 -8.093008 2.6457837 20 0.31787601 0.37262747 -0.87183923 0.074225329
-7.101398 -8.3352032 2.9341023 13.25 -0.20007752 -0.063755073 -0.97770357 0.031891555
-6.5667195 -8.4779787 2.873409 8 -0.24204634 -0.12711672 -0.96190172 0.034868494
-21.563723 -7.6289964 2.8085201 17.333334 -0.0093333209 0.99031484 0.13852555 0.044707421
-21.233168 -7.7601471 2.7757778 2 0.12305523 0.97938585 0.16018967 0.047258779
-20.748604 -7.8718567 2.7248158 2 0.12311702 0.97937918 0.16018279 0.047258031
-20.465117 -7.9666777 2.6964815 7 0.34264576 0.93500322 0.091449074 0.038399357
-5.7157769 -7.8208756 2.5956099 18.666666 -0.22869746 -0.11718049 -0.96641928 0.030990716
-21.69948 -7.2550783 2.8094022 23 -0.027305389 0.99137354 0.12819113 0.041620642
-12.228395 -7.1684504 2.7553365 44.714287 0.94678634 0.031783741 0.32028946 0.083823994
-21.857384 -6.765285 2.8094137 15.333333 -0.038888074 0.98224384 0.18353419 0.04521773
-17.157703 -6.7752695 2.9218049 27.875 0.09887103 -0.027745239 -0.99471337 0.0067906752
-12.644958 -6.917057 2.8016486 12.5 0.53005576 0.58582085 0.61306995 0.15491401
-12.318335 -6.9069109 2.7451692 42.25 0.95330006 -0.26042569 0.15296213 0.09898755
-17.238073 -6.2607775 2.9048319 34.375 0.10900873 -0.07121221 -0.99148673 0.010219069
-17.29932 -5.8119731 2.8904922 29.333334 0.10900819 -0.071212836 -0.99148673 0.010219277
-17.179607 -5.4756517 2.8558679 4 0.084543802 -0.067808896 -0.99410981 0.01146256
-16.507679 -5.2619262 2.7441738 4 -0.020901937 -0.13472673 -0.99066234 0.033841062
8.8855152 -5.060029 2.7398586 8 -0.98791605 0.12087568 0.097009473 0.056347493
-13.493531 -4.9219155 2.7919173 8 -0.1451869 -0.058946919 -0.98764676 0.10325474
-11.192587 -4.5243726 2.7871435 1 -0.0087915156 -0.063523225 -0.99794167 0.010411179
-12.590825 -4.1772842 2.5785928 8 -0.050641596 -0.0022511107 -0.99871439 0.030165447
-11.081666 -4.4345918 2.7556505 1 -0.040383279 0.022955412 -0.9989205 0.0058423295
-10.786766 -4.1886711 2.6715188 1 -0.014524972 -0.076931186 -0.9969306 0.0029351597
8.7361631 -4.0323601 2.5781829 8.333333 -0.93079442 0.2671265 0.24952985 0.081438594
-10.530297 -3.9004509 2.5925608 2.5 -0.014526311 -0.076928325 -0.99693084 0.0029348249
-10.392122 -3.8503113 2.5585933 2 -0.014526214 -0.076928556 -0.99693072 0.0029352857
-8.9305944 -3.5881648 2.5788732 3.5 -0.18078803 -0.077769011 -0.98044258 0.012997389
8.8568125 -3.775842 2.5800929 29.928572 -0.7747122 0.51870763 0.36161223 0.11551967
-10.601636 -3.3521984 2.5670664 1.5 -0.014525679 -0.076928928 -0.99693072 0.0029346892
-10.342402 -3.4084117 2.5140531 1 0.30944607 -0.94309139 -0.12174434 0.026684482
-9.0627565 -3.0885227 2.5655625 4.7142859 0.2721127 -0.94498003 -0.18156904 0.023979276
-8.9012051 -3.1695771 2.5317681 3 -0.26686305 0.95524693 0.12762247 0.023132615
8.8699665 -3.4373519 2.5489535 27 -0.48551542 0.86916137 0.093985721 0.043312915
9.2433825 -3.3631628 2.6356654 21.714285 -0.44086039 0.89311188 0.089405231 0.045043927
9.7574072 -3.2845981 2.7587152 16.571428 -0.32178888 0.46040946 -0.82733005 0.13822648
10.200148 -3.1809883 2.7017782 3.5999999 0.11148594 0.33771849 -0.93462139 0.15317416
10.746672 -3.1097822 2.5828881 1 -0.02480335 0.89938754 -0.43644801 0.10261467
11.26158 -3.0606899 2.694284 1 -0.14028841 0.95928711 -0.24512745 0.064560644
11.542541 -3.0087581 2.7538507 1 -0.051467732 0.97336012 -0.22343034 0.057881914
-9.2821951 -2.9314985 2.6082921 4.5 0.27211258 -0.94498003 -0.18156977 0.023979222
11.839831 -2.9746647 2.8184118 1 -0.11970012 0.97100735 -0.20692164 0.060147736
12.25304 -2.9006295 2.9070425 1 -0.30492607 0.87568635 -0.37442428 0.097429432
12.531569 -2.8517029 2.9671044 1 -0.31079108 0.8579545 -0.40905133 0.091242492
9.8280373 -2.0227697 2.6886125 4 -0.69469583 0.12973654 0.70750695 0.13126798
9.864646 -1.9584694 2.694824 5.3333335 -0.69391787 0.071230203 0.7165224 0.12651719
-21.151964 -0.54833364 2.598011 23 0.61523736 0.12337781 -0.77862751 0.13595933
9.6811142 -0.64475149 2.5999019 19.375 -0.98951948 -0.14435512 -0.0035956006 0.0022154662
-21.193541 -0.2582005 2.6024795 23.666666 0.56371856 -0.14363948 -0.81338131 0.16501367
9.6345749 -0.25432244 2.5827982 17.75 -0.98443228 -0.17557853 -0.0080869375 0.0023807625
-21.266058 0.2202123 2.611347 23.571428 0.64663702 -0.52242815 -0.55581421 0.1844826
9.4911699 0.018223528 2.5431559 11 -0.98844367 -0.14975269 -0.023521295 0.006260246
9.5644579 0.051748972 2.5628264 3 -0.98844367 -0.14975269 -0.023521295 0.006260246
-21.34903 0.74196535 2.6229768 20.857143 0.73367083 -0.62628895 -0.26360834 0.16109492
12.392352 0.9796558 2.8699255 1 -0.39061615 -0.057874866 -0.91873252 0.045954272
12.694173 0.91661382 2.9383106 1 -0.39063042 -0.057875864 -0.91872644 0.04594874
-21.414698 1.1922268 2.6334991 3 0.61538953 -0.72075635 -0.31907052 0.14249191
