# .PCD v0.7 - Point Cloud Data file format
VERSION 0.7
FIELDS x y z intensity normal_x normal_y normal_z curvature
SIZE 4 4 4 4 4 4 4 4
TYPE F F F F F F F F
COUNT 1 1 1 1 1 1 1 1
WIDTH 589
HEIGHT 1
VIEWPOINT 0 0 0 1 0 0 0
POINTS 589
DATA ascii
2.7112074 18.539223 2.9675622 4 -0.39826983 -0.13697048 -0.90698409 0.041151863
-23.192348 19.412447 2.6460483 43 0.97375709 0.22758949 -0.00042975359 2.8032393e-05
-13.586269 19.295483 2.8975658 19 0.57621437 0.035212882 -0.81653965 0.074000493
-23.277603 19.755253 2.6710911 51.333332 0.97385913 0.2271523 -0.00050760334 0
-7.5728602 19.914753 2.6160476 2 -0.1192799 -0.95598447 0.26807824 0.25414175
-23.400644 20.285051 2.7094395 37 0.97366738 0.22797102 -0.0010078226 0
-12.698222 20.337187 2.9438763 2 -0.066450551 -0.44767344 0.89172459 0.19052529
-9.0082712 20.232908 2.7193928 10 0.36453375 -0.89988828 -0.23940815 0.088461354
-8.5851812 20.215605 2.6967249 15 0.51544726 -0.80549151 -0.29239973 0.11943854
-8.1923933 20.472057 2.7074497 7 0.48166636 -0.82415462 -0.29793745 0.14178133
-7.5093155 20.268278 2.653949 11 -0.088405259 -0.93923181 0.33170491 0.12993032
-7.2482905 20.396795 2.6578896 14.666667 0.021460697 -0.96649039 0.25580442 0.15138271
-23.521929 20.825077 2.7485435 46 0.97328252 0.22957787 -0.0038908245 0
-23.477762 20.640232 2.7349472 45 0.97342855 0.22898321 -0.0019251186 2.4320116e-05
-12.215144 20.845211 2.9665437 14 0.2478195 -0.72714299 0.64019424 0.14924395
-10.667184 20.765009 2.8663671 5 0.14633179 -0.35152999 0.9246695 0.11984847
-8.3379364 20.523563 2.7200022 7 0.42498523 -0.86405903 -0.26979527 0.13742204
-7.0853152 20.530678 2.6667452 15 0.19622302 -0.95194602 0.23514926 0.15645061
-6.7200456 20.719358 2.6745453 41.833332 0.58501196 -0.81021756 -0.03617236 0.15911585
-6.2431464 20.755911 2.6613424 51.333332 0.4006485 -0.91621977 0.0047019366 0.15453795
-5.9822588 20.794092 2.6567519 17 0.5668695 -0.61357343 0.54971522 0.16918027
-5.1260204 20.759922 2.6255534 7 0.53548926 -0.70298141 -0.46804741 0.13571854
0.27135625 20.94821 2.5723779 19.5 -0.97026044 -0.2206043 -0.099641606 0.0088176057
3.1462884 20.561432 2.5540161 2 -0.36069259 -0.23546052 -0.90247387 0.061927371
-23.612579 21.199247 2.7762592 46.333332 0.97294652 0.23091465 -0.0073111705 0
-12.125845 21.028002 2.980437 20 0.31493366 -0.8333981 0.45416337 0.15520889
-10.519789 21.37903 2.9255955 2 0.38442928 -0.46879253 0.79526573 0.062648408
-7.5080833 21.061859 2.7454729 26 0.13108954 -0.92124814 -0.36622044 0.10337844
-0.055936381 21.367462 2.6236036 2 -0.96859896 -0.22919074 -0.096372731 0.0094413934
0.018431021 21.121374 2.5933797 7 -0.96973121 -0.22264026 -0.1002629 0.0087422999
0.5281868 21.01152 2.5807054 21 -0.97026044 -0.2206043 -0.099641606 0.0088176057
-23.75238 21.770658 2.818907 47.666668 0.97229266 0.2337158 -0.0048956098 6.1228136e-05
-10.72499 21.605333 2.9616692 2 0.39074421 -0.50520402 0.76947254 0.063878812
-6.0005674 21.710867 2.765703 10 0.26507804 -0.50385922 -0.82210684 0.1635793
-5.8876681 21.595705 2.7483978 15 -0.14349553 -0.49479038 -0.8570832 0.22632855
-23.866138 22.251839 2.8547864 48.5 0.97190404 0.23537178 -0.0016449073 5.4471351e-05
-9.7128258 22.1157 2.9658127 14 0.37293187 -0.058715999 0.92599905 0.079670601
-9.4245644 22.193588 2.9605722 8 0.36209992 -0.010860097 0.93207604 0.060039353
-6.2273221 22.228832 2.8344374 8 0.42168388 -0.39677435 -0.81532371 0.1717011
-4.7837334 22.352171 2.8066511 2 0.61316758 -0.32228413 -0.72122014 0.08106602
-24.040495 22.965576 2.9087355 50 0.98826951 0.14920829 0.032562774 0.015165
-23.960327 22.662327 2.8853779 43 0.98746812 0.15368967 0.035862722 0.016380876
-24.100395 23.265568 2.9306991 50 0.99158788 0.12250692 0.041779872 0.012822594
-6.2374244 23.181227 2.9475322 8 0.096777126 -0.93397576 -0.34398183 0.12931649
-5.1822438 23.032915 2.8987844 2 0.68151689 -0.52864051 -0.50603741 0.12280629
-24.255611 23.753283 2.9701805 25.5 0.99177867 0.12379486 0.032401498 0.012945519
-4.1159635 23.632099 2.9453385 2 0.11087628 -0.910254 -0.39892876 0.13192283
-3.9448748 23.598871 2.9377825 5 0.04436136 -0.92365104 -0.3806583 0.097587056
-0.60229319 23.785656 2.921452 5 -0.98849785 -0.14195254 0.052165415 0.094125144
-0.30973566 23.659588 2.9053166 2 -0.97092158 -0.23549879 -0.043030147 0.0021973506
-0.73850816 24.310137 2.9862866 5 -0.9684903 -0.24465528 -0.046587925 0.0019015673
-9.510416 -26.693604 3.4793701 14 -0.011016562 0.17045312 0.98530418 0.072610877
-9.2926302 -26.639885 3.4642582 14 -0.086220779 0.23923844 0.96712512 0.074655645
4.9257736 -23.932859 3.0001798 2 0.19458748 0.97577441 0.099999666 0.12401205
5.3601518 -23.927389 3.0107419 13 0.084795229 0.99546373 0.043147486 0.14746441
-3.2845225 -21.769154 3.4869246 17.5 -0.38505933 0.91448808 -0.1242615 0.17880528
0.54754949 -21.631348 3.4271667 15 -0.58985323 0.80746305 -0.0087498175 0.098627642
1.1619436 -21.735641 3.4475031 20 -0.55834508 0.82951528 -0.012459962 0.10505208
-5.0968981 -21.295599 3.4681528 15 -0.067820154 0.17189227 -0.98277843 0.16964649
-4.8687067 -21.156368 3.4384298 20 0.16309977 0.39863089 0.90249199 0.091870911
-4.2796884 -21.283339 3.4384298 10 0.44099283 0.89652711 0.042004578 0.14158534
-3.5933459 -21.449997 3.4446871 20 0.081085198 0.99582589 -0.041904543 0.19390881
-3.3624797 -21.266399 3.4101152 12 -0.37445462 0.875696 -0.30486104 0.17643723
0.88537902 -21.169844 3.3559368 22.333334 -0.5581938 0.8296172 -0.012444802 0.10499069
1.0695059 -21.408115 3.3949413 19 -0.55834043 0.82951838 -0.012458354 0.10505499
1.5885712 -21.427368 3.4030759 9 -0.55839622 0.82948166 -0.012400738 0.10508722
5.230299 -21.169428 3.4537604 20 -0.36910605 0.24214561 -0.89728826 0.1205992
5.550169 -21.171741 3.4665883 15 -0.32470939 0.24302806 -0.91405755 0.13962346
-5.8601894 -20.779312 3.4195013 9.5 -0.18776934 0.40890583 -0.89305019 0.21713191
-5.3348718 -20.689507 3.3840952 14.333333 0.031222297 0.41214544 0.91058296 0.23413707
-4.8924932 -20.761442 3.3783591 9 0.085988201 0.53116977 0.84289068 0.10912964
-3.5987775 -20.876987 3.3553634 6.5 -0.065187082 0.10511735 -0.99232095 0.18252075
-3.432023 -20.958128 3.3636541 9 0.092666052 0.18365493 -0.9786132 0.1875701
-2.7746868 -20.549047 3.2841856 4 -0.94083947 0.32701281 -0.088790253 0.17419404
-2.1529179 -20.797182 3.3115928 15 -0.75931776 0.61009389 -0.22632264 0.096530259
0.82766199 -20.972055 3.3242328 9 -0.55859178 0.82934815 -0.012523437 0.10513638
1.3244936 -20.792034 3.299829 4 -0.70259976 0.69719994 -0.14235795 0.084749267
2.0742381 -20.635464 3.2848115 23 -0.73243511 0.62038404 -0.28046814 0.081545524
5.2016144 -20.847034 3.4030759 9 0.14555822 0.22726202 -0.96289396 0.094386004
5.6535158 -20.967457 3.4395251 12.5 -0.26277813 0.22123936 -0.93914902 0.082281522
-5.5064549 -20.183563 3.3135953 4 0.172435 0.39754233 0.901236 0.15566775
-5.2205195 -20.242739 3.3111703 16.25 0.41099992 -0.076444834 -0.90842456 0.17481545
-4.4261222 -20.031113 3.2491441 13 -0.58506483 0.16705662 -0.79359388 0.14301439
2.1167917 -20.00556 3.1862574 13 0.11185443 0.2254315 -0.96781671 0.12115253
-9.3999481 -19.619211 3.445626 5 0.24529415 0.17230931 -0.95401269 0.055125624
-3.7049274 -19.656715 3.168174 14.6 -0.18175453 0.62477529 0.75935572 0.16610125
-3.4915917 -19.641401 3.1596639 4 -0.87790334 0.27073902 0.39495081 0.1816432
-2.2254565 -19.532581 3.113672 8 0.20029271 0.71372718 -0.67117542 0.17475179
-1.3365276 -19.504566 3.0964642 12 -0.20375277 0.94159907 -0.26809695 0.090245157
2.8183525 -19.509768 3.1221194 8 -0.50637215 0.54469073 0.66850525 0.16345994
7.3949242 -19.601284 3.3181317 11.5 0.86050647 0.5014677 -0.089770086 0.11433094
-9.4464159 -19.314852 3.4054744 4.6666665 0.28852662 0.10310154 -0.95190471 0.072226405
-2.553077 -19.418747 3.1020958 4 0.20435779 0.95399475 -0.21938983 0.18930387
-2.3404515 -19.358561 3.088434 16.666666 0.25119263 0.85805649 -0.44793004 0.18164445
-1.2594661 -19.371126 3.0745635 8 -0.15853521 0.94963044 -0.27031189 0.09359166
-0.11454645 -19.303043 3.0573554 8 0.17721109 0.28554076 0.94184005 0.18239471
0.29266128 -19.389954 3.0714345 4 0.59899986 0.79946834 0.045272365 0.18116628
0.59846687 -19.475895 3.0861397 10.5 0.3703979 0.37497494 -0.84982306 0.22706787
1.3514895 -19.135216 3.0382705 4 0.33251861 0.067090504 -0.94070733 0.093054414
-9.5623055 -18.773283 3.3369355 4 0.53519428 0.50812876 0.67481279 0.11786517
-5.7112713 -18.750113 3.1044426 12.5 0.50460017 0.48725033 -0.71271724 0.20849937
5.790853 -18.501255 3.0704958 17 -0.19309567 0.95742381 -0.21460113 0.064283043
-9.6944952 -18.233746 3.2707946 4 0.86509562 0.38280606 0.32414368 0.081074968
-8.2966881 -18.337339 3.1878221 11.666667 0.065746702 0.56680393 0.82122511 0.074395768
-6.5890856 -18.064112 3.0454664 4 0.12953669 0.6717332 0.72937983 0.10291154
-5.7431359 -18.394035 3.0520368 12 -0.48496342 0.31714642 0.81500226 0.22519788
5.893352 -18.488529 3.0734682 10.5 -0.29886964 0.85229754 -0.42926195 0.076684684
6.2169466 -18.182657 3.0436673 8 -0.32579705 0.93091047 -0.16511224 0.080558665
-10.025531 -17.872673 3.2457027 4 0.95219272 0.30245087 -0.04304209 0.022313742
-9.877574 -17.972097 3.2481015 4 0.94410759 0.32925081 0.015963774 0.016418329
6.2726483 -17.936823 3.0096431 21 -0.2155727 0.97412872 -0.067835182 0.082399309
6.8661132 -17.77055 3.0173864 18.75 -0.28670293 0.95704859 0.043119933 0.12794144
7.0317097 -17.732935 3.0213757 4 -0.37932682 0.92281324 0.06728249 0.098481707
-10.31189 -17.047668 3.1556592 12.8 0.94787669 0.3078053 -0.082375191 0.03666576
-9.9309645 -17.215828 3.1478999 16 0.96021581 0.27816585 -0.024684016 0.035754796
-10.578876 -16.761347 3.139327 4 0.945274 0.2836563 -0.16123337 0.034974866
-10.030506 -16.980949 3.1236837 25 0.94973081 0.31213233 -0.024181698 0.039094619
-2.2419653 -16.581942 3.2525303 18 0.43212128 0.41835037 0.79890805 0.076913044
-10.694934 -16.245304 3.0805705 5.5999999 0.91571844 0.3590942 -0.18030858 0.025792405
-4.7546778 -16.308886 3.3021407 12.8 0.32548097 0.2829788 -0.90221119 0.15419771
-3.0325847 -16.080265 3.1807859 26 0.21391025 0.36080748 0.90777773 0.099927627
-2.9737487 -16.218983 3.2052095 13.5 0.24317701 0.16735539 0.95543563 0.074206412
-1.44095 -16.083281 3.1388083 17 -0.10727195 -0.026002606 -0.99388963 0.04239269
-10.776874 -15.891725 3.0411904 4 0.91382653 0.318847 -0.25151062 0.026296727
-5.6995406 -15.705861 3.247951 22.5 0.55613583 0.55267602 -0.62069488 0.12204336
-4.6994858 -15.5165 3.1514015 8 0.33779138 0.16773045 -0.92615521 0.13723829
-3.2279181 -15.769544 3.129077 12.5 0.15301903 0.32018229 0.93491626 0.12826094
-1.7497833 -15.805925 3.0912967 8 -0.14105058 -0.0063186418 -0.98998219 0.053658005
-1.1529182 -15.966806 3.1117132 8 -0.029560598 0.07727354 -0.9965716 0.049801145
-6.7622085 -15.032557 3.2040651 9 0.79919881 0.40708882 -0.44222155 0.15907855
-5.8393545 -15.414577 3.2041605 24.75 0.47228625 0.37831664 -0.79612952 0.13749513
-2.6365337 -15.418048 3.040478 22.333334 0.258362 0.36340067 0.89509159 0.12599765
-0.19918646 -15.015671 3.4669456 9 -0.37037569 0.27879891 -0.88605475 0.10864463
-2.3156114 -14.770323 3.451649 6 -0.19954677 0.50736451 -0.83830917 0.1112356
-0.094670326 -14.660067 3.3846135 10 -0.49819562 -0.12140992 -0.85852242 0.15348348
2.4149332 -14.919182 3.4892159 21 -0.047105528 0.1514803 -0.98733723 0.032911375
4.8061504 -14.734869 3.0126834 21 -0.39008313 0.64133221 -0.66070276 0.087851383
-10.579357 -14.164235 3.4364703 9.333333 0.76440638 0.1086167 -0.63551968 0.037604883
-6.7778053 -14.073552 3.0363436 21 -0.63006389 0.74115074 0.23176518 0.13515589
-6.2959623 -14.197941 3.01898 16.5 0.53249174 -0.044548593 -0.84526205 0.21533516
-5.8037672 -14.339369 3.006959 29.5 0.42691496 0.45804754 -0.7797026 0.13738821
-5.0002851 -14.302579 3.4979889 4 0.34080428 -0.28822798 -0.89486158 0.1394026
-4.9415603 -14.318851 3.4970891 10 0.34080121 -0.288219 -0.89486557 0.13940296
-2.6102204 -14.35078 3.3675172 8 0.30787319 0.69659835 -0.64804685 0.12011444
-1.6609193 -14.072955 3.2716238 17.571428 -0.15718171 0.35231972 -0.92258584 0.091378205
-1.4135618 -14.227071 3.300782 3.6666667 -0.14618005 0.37731767 -0.91447401 0.11470408
-0.48048419 -14.112393 3.2599907 12 -0.49819618 -0.1213985 -0.85852379 0.15348046
0.060169175 -14.364038 3.3162284 15 -0.68509167 0.096597865 -0.72202373 0.2161925
2.7419839 -14.407533 3.3859632 10.5 -0.35386637 -0.13036115 -0.92616665 0.070328198
-10.65558 -13.767964 3.3841884 9 0.76098722 0.097444899 -0.64140713 0.038195435
-6.3442416 -13.663773 3.4780433 14.333333 -0.69910461 0.69280708 -0.17683618 0.2805565
-5.6982226 -13.717969 3.4294913 16.5 0.3082687 0.15525004 -0.93854558 0.1127497
-3.5147209 -13.79886 3.2874346 9 0.66355765 0.64813417 -0.37364879 0.10195045
-3.3696575 -13.833773 3.2872097 9.75 0.69026196 0.55080998 -0.46919805 0.063839249
-0.22639443 -13.510668 3.1196213 13 0.33167341 0.57292151 0.7495023 0.094514564
5.4506927 -13.812083 3.4281042 26.333334 -0.80109733 0.44129407 -0.40435442 0.13212954
5.7175655 -13.613472 3.4089084 28.6 -0.83208948 0.35313505 -0.42769468 0.13394718
9.3013802 -13.589411 3.2010119 9 -0.43570885 -0.31185892 -0.84433514 0.052175749
-10.767471 -13.252643 3.3192372 9 0.65957874 0.096485659 -0.74541694 0.041448988
-4.399086 -13.170102 3.2057025 11.333333 -0.56880361 0.10931561 -0.81517637 0.22587849
3.613317 -13.153926 3.1493149 1 -0.22039644 0.68350172 0.69588137 0.093672208
5.3987856 -13.345652 3.3236518 21.5 -0.82558084 -0.34277388 -0.44824368 0.16605641
5.7770085 -13.390713 3.3670673 26.833334 -0.86455381 -0.17941596 -0.46942165 0.14419067
-10.883036 -12.711045 3.2527592 9 0.59633559 0.1939507 -0.77895254 0.044899266
-4.0851488 -12.742597 3.0893655 30 0.77480739 0.47278062 0.41970468 0.16003022
-3.7905972 -12.648149 3.0485368 23 -0.23706335 0.21294577 -0.94786865 0.23158294
-1.6644951 -12.745169 3.4441051 21.5 0.41785279 0.39461732 0.8183375 0.054987248
2.9270906 -12.719126 3.4971633 4 0.24868818 0.34664097 0.90443027 0.082107164
3.3591161 -12.666941 3.26771 11 -0.22048974 0.68359357 0.6957615 0.09366487
4.2535148 -12.784079 3.1106231 16 0.12227208 0.92866492 0.35018703 0.081516519
4.7081933 -12.692388 3.1255448 13.166667 0.22989531 0.94649506 0.22648485 0.065512061
5.0152192 -12.545291 3.1191714 9 0.23488162 0.86090487 0.45130184 0.091134563
-11.343245 -12.118002 3.226526 9 0.9593389 0.27463949 0.065130673 0.040045079
-10.976367 -12.480949 3.2307782 9 0.89636827 0.1192864 -0.42695996 0.091562465
-4.6824288 -12.152475 3.2804165 14.714286 0.8156963 0.55495298 0.16329917 0.18084297
-3.8749073 -12.297119 3.4547167 14 -0.33153358 0.19327216 -0.92343456 0.10430693
-2.1476057 -12.269347 3.337558 5.6666665 0.088170283 -0.26620167 -0.95987642 0.058311626
4.7327681 -12.335719 3.0503364 22 0.19847484 0.97967732 0.028985156 0.054831941
-16.060053 -11.606369 3.1383886 28 -0.025953854 0.37780708 -0.92552054 0.17543653
-15.783938 -11.619464 3.1042855 32.666668 -0.17548524 0.8536821 -0.49033856 0.14594024
-15.301018 -11.554883 3.0368626 26 -0.1356802 0.85205036 -0.50556999 0.11889185
-11.601646 -11.764519 3.2117608 9 0.93333906 0.35027552 0.078646734 0.074583262
-11.492298 -11.942266 3.2216191 9 0.95451081 0.28783429 0.077849306 0.04632121
-7.7210302 -11.758615 3.2476182 6 0.049391381 -0.260456 -0.96422154 0.12497073
-5.070971 -11.797331 3.4407406 4 0.26083684 0.31895286 0.91117126 0.068526216
-4.8634024 -11.700947 3.3954473 7.75 0.48602012 0.54764813 0.681077 0.090402395
-4.4725418 -11.975101 3.4252112 29 0.029577322 -0.17451555 -0.98421007 0.14356387
-2.1643629 -11.542541 3.1467223 4 0.23569639 0.30587521 0.9224357 0.12356196
0.91758621 -11.685522 3.140769 16 -0.58199841 0.2088501 -0.78591323 0.19810623
-16.130157 -11.280555 3.1176052 36.57143 0.011368616 0.54363376 -0.83924562 0.15466586
-13.819865 -11.178828 3.4552455 21.6 0.19302477 0.72368491 -0.66258711 0.16866116
-13.28455 -11.156286 3.3720722 28.5 -0.23100913 0.96434695 -0.12911141 0.070031352
-12.865734 -11.076388 3.2999783 27.666666 -0.25664437 0.95640874 -0.13934115 0.048291761
-11.272822 -11.080476 3.0725336 39.333332 0.95608252 0.29270655 0.015136147 0.12806004
-9.1054668 -11.341054 3.3577693 19.333334 0.14331745 0.22649586 -0.9634105 0.19892988
-8.4514294 -11.231734 3.2451439 4 0.058147896 0.39741588 -0.91579443 0.1879804
-6.0713758 -11.115049 3.3936355 24 -0.0029060582 -0.14881386 -0.98886096 0.088186637
-5.9605651 -11.186565 3.3963959 9 -0.029151332 -0.22456184 -0.97402376 0.087104045
-4.6902461 -11.451459 3.3158169 7.3333335 0.13157982 0.27042189 0.95370781 0.075214617
-3.1801755 -11.35967 3.1608708 17.333334 -0.15623748 0.033672743 -0.98714548 0.042219713
-2.9045954 -11.117942 3.0790842 8.666667 -0.15623717 0.033686683 -0.98714501 0.042219538
-2.272681 -11.457134 3.1297696 5.25 0.11573525 0.29202554 0.94938213 0.10767128
0.69183785 -11.205531 3.0083401 13.333333 0.47196776 0.86623275 -0.163973 0.160804
1.9141476 -11.24184 3.0556178 20.25 0.5061571 0.84726691 0.16107073 0.10143096
7.8863392 -11.317535 3.1847069 8.333333 -0.96516007 -0.25550357 -0.056425869 0.065703943
8.0777302 -11.171291 3.1827202 6 -0.98436874 -0.068189397 0.16238348 0.15660052
16.299082 -11.002151 3.1146107 4 -0.15708998 0.92079794 0.35700685 0.029153861
-16.206768 -10.997575 3.1020958 25 0.011370461 0.54357928 -0.83928078 0.1546701
-14.085085 -10.670921 3.4349439 9 0.47329935 0.19247508 -0.85961682 0.16022424
-13.961758 -10.921881 3.4456289 9 0.1931958 0.72345459 -0.66278875 0.16868536
-12.500388 -10.912476 3.2254355 36 -0.032477006 0.99914873 -0.025435092 0.089784458
-12.201256 -10.839795 3.1724861 46.5 0.065409839 0.9978438 -0.005405759 0.10191881
-11.688622 -10.75499 3.0875442 48.333332 0.29494292 0.94955075 0.10659308 0.10511748
-11.337039 -10.839373 3.0488989 40.599998 0.74183106 0.62390244 0.24583007 0.1188467
-6.2286582 -10.673373 3.3114345 19.6 0.0045181853 0.093864642 -0.99557477 0.055771936
-5.8825674 -10.594979 3.2471437 19 0.012051273 -0.06305065 -0.99793756 0.056143522
7.57583 -10.562498 3.482928 11.5 -0.95548427 -0.29278663 -0.036411788 0.092028655
8.8911963 -10.567254 3.1883812 1 0.14472902 -0.059492484 -0.98768127 0.20629832
16.157957 -10.98506 3.0945871 4 -0.17904457 0.91797876 0.35391799 0.0356884
-16.587242 -10.116925 3.077275 4 0.21755999 0.22966957 -0.94864094 0.067434579
-14.281238 -10.242095 3.4161971 9 0.26429027 0.18065667 -0.94737202 0.034288842
-8.6228142 -10.183756 3.0807047 6.5 0.46141875 -0.061689489 -0.88503516 0.10418933
-8.322587 -10.282369 3.0544605 19.333334 0.17513894 0.33944079 -0.92417878 0.15165533
-7.7164927 -10.376682 3.3443308 7.75 -0.16853628 0.21089223 -0.96287066 0.11113317
-6.3172359 -10.463947 3.2752259 13.75 0.12241761 -0.10496904 -0.98691207 0.055129748
7.4648952 -10.106836 3.3667183 14 -0.97634614 -0.19984564 0.082522452 0.11029957
7.5231895 -10.335981 3.4254704 14 -0.96392494 -0.26409504 -0.033204388 0.093710631
9.2403231 -10.272027 3.1900828 1 -0.19899462 -0.15227424 -0.96809798 0.029219495
9.5148048 -10.037062 3.1929553 1 -0.58437616 0.11649862 -0.80307698 0.089896962
-14.428185 -9.899622 3.4012661 9 0.2827743 0.096379861 -0.95433205 0.023389591
-8.2684727 -9.7955112 3.4347878 16.5 0.23299313 0.031451929 -0.97196966 0.10607904
7.378685 -9.7398071 3.2741647 14 -0.98896468 0.054403458 0.13780089 0.042300347
9.5645618 -9.9842911 3.1920555 1 -0.71560115 -0.042528655 -0.69721323 0.096941859
-14.843914 -9.0488024 3.3792276 9 0.16132416 0.11951138 -0.97963846 0.0088937357
-8.5217361 -9.12253 3.3449774 16 0.17352872 -0.028688172 -0.98441088 0.095978878
-8.342289 -9.2453289 3.3369541 14 0.17352095 -0.028689284 -0.98441225 0.095979936
-7.670517 -9.3195972 3.2343063 28.200001 -0.17930943 0.0184115 -0.98362035 0.067929305
-7.4909854 -9.3235712 3.2046976 19 -0.1170389 -0.1166329 -0.98625481 0.044982165
-6.847106 -9.375474 3.1108756 4 -0.14393766 -0.11155041 -0.98327941 0.060920071
-6.1360316 -9.4812574 3.0261126 8.5 -0.16184324 -0.18220939 -0.96984863 0.051258579
7.3800163 -9.2287912 3.1664443 9.5 -0.95270008 0.15143761 0.2634941 0.074615598
7.5714726 -9.0350571 3.1586277 5.6666665 -0.87014824 0.27897745 0.40621883 0.079174116
-7.6537709 -8.723814 3.1097109 17.833334 -0.17813781 0.03931411 -0.98321992 0.05586065
7.8275027 -8.8635902 3.1687925 4.909091 -0.73372966 0.30383846 0.60771948 0.052100327
8.1209059 -8.6017761 3.169843 4 -0.67726338 0.35716149 0.64323395 0.041526884
8.3694239 -8.3822145 3.174042 4 -0.41630161 0.41968086 0.80657363 0.056554638
8.6228828 -8.1410265 3.1776509 4 -0.23596649 0.36497778 0.90061706 0.091434218
-12.151218 -7.6626191 3.3165658 23 0.9004066 0.0083770575 0.4349688 0.13187265
-11.966487 -7.8443007 3.3034065 33 0.75967413 -0.65015233 -0.014043445 0.052718636
8.8204098 -7.8951097 3.1720123 4 -0.048818596 0.89033371 0.45268369 0.096610703
9.0232639 -7.7229519 3.1824391 4 0.070357911 0.76088047 0.64506656 0.099686742
-10.282947 -6.2835364 3.2290263 12.75 0.31713864 -0.30024716 -0.89959693 0.039636072
12.411241 -6.1461024 3.1974545 1 0.24318917 0.014704571 -0.96986747 0.119195
12.572313 -6.1142559 3.2275977 1 0.24318917 0.014704571 -0.96986747 0.119195
12.891463 -1.7361211 3.0030966 1 -0.1988575 0.90607744 -0.37346932 0.12127324
13.00535 -1.7075686 3.0282912 1 -0.24699087 0.89742082 -0.36555621 0.10897083
-19.364555 -1.0713286 3.0717475 60.666668 0.346816 -0.88065815 -0.32273811 0.045945253
11.725715 -1.1311234 3.1565573 4 0.012900909 0.36886898 -0.9293918 0.097723626
13.598906 -1.330997 3.1546574 1 -0.28075096 0.75976068 -0.58646613 0.16434363
-19.442219 -0.73604059 3.0816252 74.285713 0.39112768 -0.82914656 -0.39941853 0.066553555
-16.947275 -0.69586152 3.2970703 9 0.38537982 0.84038419 -0.38109943 0.13595475
11.734008 -0.74083304 3.1506045 4 0.096245706 0.32065564 -0.94229335 0.089337789
-19.557644 -0.26460281 3.0979838 72 0.39465466 -0.80362958 -0.44545168 0.10686558
-17.007248 -0.28498745 3.3063385 9 0.77430832 -0.18952236 -0.60376137 0.16538203
-16.970997 -0.25127417 3.2993062 9 0.77430838 -0.18952087 -0.60376179 0.16538227
11.744269 -0.27124283 3.1478987 4 0.22666591 0.22748157 -0.94703472 0.054554775
-19.61154 0.0068423455 3.106163 29 0.43703297 -0.74666166 -0.50149626 0.10548562
-17.718819 0.43922782 3.4452477 9 0.50557059 0.84638274 -0.16743587 0.15157878
-17.104528 0.31854492 3.3254192 9 0.7655589 -0.28848091 -0.57506377 0.16809317
-16.994379 0.068218894 3.3034127 9 0.77427363 -0.18964349 -0.60376799 0.16540174
11.660621 0.29990676 3.125499 20.333334 -0.30528674 -0.18071057 0.93495649 0.0093539376
-17.218868 0.54713851 3.3486981 9 0.76538366 -0.28900298 -0.57503498 0.16812521
-16.777102 0.6498912 3.2635975 12 0.41391489 -0.74149132 -0.52807677 0.17003512
-16.248203 0.77176321 3.1618962 8 0.24901727 -0.96425754 -0.090541646 0.088181786
-15.745384 0.88263077 3.0654104 8 0.20445143 -0.97446686 -0.092811167 0.09768144
-14.855298 0.99189448 3.437252 33 0.55668622 -0.82527894 0.094948277 0.093493275
11.629194 0.76633286 3.1229105 19 0.24357335 -0.38422137 -0.89053124 0.03798721
-14.60313 1.0504841 3.3801146 40.5 0.69003993 -0.72230136 0.046104841 0.1004865
-14.144979 1.2984848 3.2795053 42.125 0.84828091 -0.49199188 0.19586588 0.12169384
11.66269 1.3097712 3.1448734 4 0.19549586 -0.37730682 -0.90521872 0.022953857
-14.624125 1.8767598 3.4039593 27 0.98671049 0.051570084 -0.15408725 0.12249699
-14.106032 1.608493 3.2777619 38.25 0.97437215 -0.18036483 0.13441585 0.14182355
19.854448 1.9152681 3.1592464 4 -0.55378228 -0.13756931 0.82121849 0.056721386
-14.264668 2.233506 3.3335495 13.4 0.93953097 0.21703149 -0.26491311 0.074399471
19.839005 2.1957183 3.1614156 4 -0.56559813 -0.25213125 0.78519332 0.051868357
-14.339918 2.733182 3.3703666 15.888889 0.87506801 0.14507258 -0.46174669 0.046523862
-15.090317 3.4437227 3.0086765 8 0.79002225 0.22561137 -0.57005644 0.015499912
-14.505112 3.4502523 3.4422011 13 0.8429563 0.17363279 -0.50919181 0.027794184
-14.446064 3.1981158 3.4159942 14 0.84381384 0.16629028 -0.51022124 0.030439503
-15.152937 3.7378242 3.0338156 8 0.82663834 0.21381807 -0.52052945 0.016706638
-14.5723 3.7337236 3.4730942 13.222222 0.82063603 0.2470836 -0.51527286 0.017603805
-15.266318 4.2471871 3.0802934 8 0.87165642 0.17133664 -0.45919365 0.01992785
-15.316091 4.7503524 3.1171515 8 0.57369792 0.14715149 -0.80574012 0.054056671
-15.229693 5.2490416 3.1314046 8 0.67089534 0.10573607 -0.73397499 0.063518517
-15.057596 5.7181082 3.1309373 11.375 0.82500619 0.1418027 -0.54704374 0.055811763
-15.161933 6.2446699 3.1874642 8.5 0.89534134 0.14664952 -0.42054468 0.049464907
-15.270968 6.7582545 3.2461517 9 0.90332055 0.20078726 -0.37907323 0.086992987
-15.693003 7.4411244 3.3759837 28.25 0.9816106 0.11969303 -0.14870824 0.073878892
-15.359635 7.0906892 3.2884023 9 0.96441066 0.18281257 -0.19102794 0.076038323
-15.528027 7.7608652 3.374362 38.25 0.93506926 0.35363218 -0.024285749 0.047528606
-15.488807 7.5377097 3.3483164 38 0.97821122 0.19329669 -0.075757243 0.045227088
-15.78106 8.3006353 3.4660933 10 0.95979553 0.27766517 -0.041165657 0.052243788
-15.71848 8.6569471 3.488116 10 0.92427576 0.27881792 -0.2607199 0.040097669
-16.466524 9.4457378 3.0066707 4 0.89378166 0.19138263 -0.40561926 0.020402858
-16.554319 9.7616758 3.0439024 4 0.90284038 0.16010569 -0.39905563 0.02208671
-16.573648 10.242397 3.0858786 4 0.97800809 0.11803238 -0.17195493 0.040035676
-16.475023 10.459398 3.0908327 4 0.9772684 0.1353779 -0.16315411 0.04149691
4.3962913 10.367133 3.0173867 4 -0.15126722 -0.027956272 -0.98809755 0.075286664
4.6487646 10.258231 3.0178304 4 -0.35740447 -0.21075946 -0.90985852 0.050345447
-16.294819 10.704987 3.0880556 4 0.98409957 0.11663721 -0.13395469 0.035644513
-8.3646917 10.903403 3.1727097 29 0.36197203 -0.91155398 -0.19505292 0.10274565
-2.6156046 10.970655 3.0219712 4 0.52507007 -0.54126227 0.65676218 0.11155531
2.9069159 10.823448 3.0029914 7.3333335 -0.44081008 -0.25398529 0.86091691 0.12518336
3.2304068 10.750472 3.0080383 4 -0.44600794 -0.26893866 0.85366797 0.11769286
7.8486414 10.606826 3.0462873 1 0.18490353 0.1399022 -0.97274768 0.011974269
8.3410797 10.716258 3.1351879 1 0.17343488 0.14506684 -0.97410256 0.010200845
8.7551718 10.814698 3.212451 1 0.14102851 0.17282487 -0.97480386 0.0088640535
9.1939392 10.925307 3.2966125 1 0.14102745 0.17282276 -0.97480434 0.008864345
-16.318411 11.257955 3.1400156 4 0.98957604 0.13648434 -0.045948137 0.025218343
-8.6198854 11.233728 3.2692137 15.5 0.5607329 -0.82288069 -0.091902174 0.077664509
-8.2562094 11.409701 3.2514424 7 0.53228557 -0.80454206 -0.26340872 0.095356077
-7.7644029 11.264667 3.158613 9 0.5322516 -0.80455643 -0.26343346 0.095368713
-3.058006 11.420609 3.1679454 4 0.29545662 -0.31152916 0.90313619 0.089521207
-2.8251572 11.240111 3.1055698 9 0.29547584 -0.31151262 0.90313554 0.089519002
-2.4237428 11.014633 3.0219712 13 0.52506602 -0.54127443 0.65675539 0.11155256
2.3352749 11.22335 3.0717509 17.5 -0.96454746 -0.26178536 0.033416677 0.093901373
9.4570465 11.002594 3.3495212 1 0.14447443 0.17065257 -0.97468191 0.0084558763
9.6263504 11.039807 3.3816144 1 0.14447528 0.17065378 -0.97468156 0.0084557654
-16.427151 11.75871 3.1997108 4 0.9903115 0.13880846 -0.003927906 0.016193807
-10.734596 11.80513 3.1015623 18.4 0.85693085 -0.51202452 0.059164204 0.092620283
-10.233032 11.79156 3.034899 11.714286 0.11136084 -0.99366868 -0.014873714 0.20301045
-7.8335371 11.78637 3.2673018 26.25 0.5322448 -0.80455673 -0.26344624 0.095365755
-2.9143517 11.525872 3.185545 4 0.31859642 -0.24657083 0.915259 0.087566189
2.2092526 11.74509 3.2023163 15 -0.9477759 -0.31286255 -0.061950661 0.15324672
6.3102689 11.897925 3.1092734 1 -0.4806205 -0.1472366 0.86447972 0.060891956
6.6918197 11.954046 3.1628118 1 -0.33869076 -0.1108119 0.93434966 0.03988431
-16.549278 12.237309 3.2599382 4 0.90333754 0.31183934 -0.29451227 0.038779575
-10.029928 12.122021 3.0582867 25.5 -0.68901384 -0.71606773 0.11183473 0.13469037
-7.7874136 12.032899 3.3090301 12 0.5322448 -0.80455673 -0.26344624 0.095365755
-1.8919631 12.179136 3.302531 4 -0.2387275 0.055752974 -0.96948481 0.044465587
2.0880952 12.269194 3.334832 11 -0.93554729 -0.33848077 0.10090625 0.16122642
6.8913264 12.015614 3.1979043 1 -0.33869076 -0.1108119 0.93434966 0.03988431
-16.65871 12.729016 3.3206036 4 0.88390446 0.28567988 -0.37027007 0.053984977
-3.3560224 12.876491 3.0721564 5 0.29064 -0.34524187 -0.89237684 0.1443312
-2.4767113 12.946506 3.0431378 33 -0.12395979 -0.5510456 -0.82521677 0.15016024
1.9540777 12.826713 3.3148565 11.666667 -0.76515293 -0.57967544 0.2802096 0.11876518
2.0126989 12.607967 3.4210703 9 -0.88184845 -0.45458651 0.12527791 0.14573123
-16.766525 13.180041 3.3778374 4 0.91116154 0.24351229 -0.33239481 0.072248861
-3.2548237 13.162147 3.1305687 7 0.7800343 -0.54346323 -0.31015202 0.14212547
-2.7330496 13.157264 3.1025999 10.666667 -0.076380923 -0.55635762 -0.82742506 0.14855555
-2.4022572 13.311176 3.1227705 10 -0.12938787 -0.55407476 -0.8223502 0.16225833
1.8500383 13.25143 3.0890279 12.75 -0.94719023 -0.31804642 -0.040951371 0.071866065
-17.078568 13.667758 3.4645543 20 0.95629168 0.17634606 -0.23325597 0.078371748
-16.960215 13.817909 3.4649193 23.333334 0.97860473 -0.14760338 -0.14333841 0.073770992
1.7301365 13.767618 3.2035279 11.5 -0.95109689 -0.18024698 -0.25084999 0.014418686
-17.016319 14.06212 3.4963107 20 0.98712575 0.14554341 -0.066331923 0.040250927
-2.2677131 14.23731 3.3283758 6 0.76655096 -0.60908324 0.20351231 0.090250641
1.6135826 14.253577 3.3117294 9.333333 -0.95440811 -0.17998563 -0.23813936 0.058218028
-1.6583608 14.804851 3.4394267 38.333332 -0.7759943 -0.5106653 0.37020776 0.1405587
-1.2496526 14.959015 3.465596 5 -0.85507828 -0.44745088 0.26197106 0.13932121
1.4729831 14.862331 3.4480498 9 -0.94759876 -0.28181568 -0.15045476 0.070608549
1.5273896 14.631511 3.396311 8 -0.96399903 -0.22165038 -0.14689113 0.069459006
1.3984439 15.196839 3.2416432 8.5 -0.94086617 -0.32038045 -0.11012311 0.066149198
-10.727154 15.742314 3.0173082 6.6666665 -0.24140884 -0.89137918 -0.38362074 0.19030933
1.2820543 15.733663 3.0684631 8 -0.9362936 -0.34586149 -0.061107107 0.046601087
-11.276206 16.406557 3.1532183 15.2 0.13699612 -0.82028896 -0.5553 0.13438591
-10.646835 16.307261 3.0845749 11 0.11848948 -0.66744268 -0.7351737 0.14769226
-10.055737 16.117561 3.0088608 4 0.22520815 -0.82218051 -0.52278149 0.21658926
1.1518226 16.260094 3.1685743 8.333333 -0.9735378 -0.22714904 -0.025051149 0.00017715718
-11.081459 16.590836 3.1599765 13 0.0021325808 -0.61599863 -0.78774428 0.20910713
-9.7880993 16.844767 3.0857015 6.5999999 0.21473524 -0.96972126 -0.1163158 0.10943273
-9.4719934 16.975943 3.0789435 8 0.23304616 -0.9531619 -0.19279984 0.10881516
-8.8512373 16.8092 3.0088608 38 0.080661997 -0.98791981 -0.13231856 0.064490817
1.0404127 16.749588 3.2620707 9 -0.97234058 -0.23290485 -0.01758533 0.0001290933
-20.27141 17.21607 3.2655625 3 0.61808759 -0.085112236 -0.78148806 0.013123512
0.92051703 17.247444 3.3573482 9 -0.98205125 -0.17910254 -0.059139647 0.0069966572
-20.143372 17.721756 3.2942748 3 0.40385979 0.09318205 -0.91006285 0.016552418
-11.485245 17.921154 3.3713198 4 0.91368872 -0.39048806 -0.11265883 0.16291955
0.79366243 17.789978 3.4614663 9.5 -0.97306323 -0.21176732 -0.091118433 0.0072987704
-20.033161 18.247246 3.3272281 3 0.12624104 0.27833426 -0.95215195 0.048495222
-19.893337 18.756142 3.3571105 3 0.098407269 0.1743582 -0.97975266 0.080954969
-11.725859 18.566441 3.4780078 5 0.66270816 -0.74887335 -0.0025673283 0.14364977
-10.347746 18.768242 3.3944716 19 0.5713219 -0.80326903 -0.16837505 0.10640731
-19.778812 19.242798 3.3882728 3 0.1810741 0.14047891 -0.97338468 0.10442191
-9.9533253 19.226532 3.429044 10 0.45070383 -0.88576359 -0.11085525 0.17393276
-9.2862778 19.226713 3.3818009 4 0.16114755 -0.71952581 -0.67551023 0.16174905
-8.1462965 19.38858 3.3309071 4 0.31702337 -0.52565658 -0.78941834 0.12548611
-7.5399728 19.239723 3.2729223 4 0.70658779 -0.66448051 -0.24330913 0.13140021
0.4565877 19.241638 3.0484388 6 -0.94442123 -0.20791547 -0.25463659 0.10231292
-19.731647 19.735819 3.4266615 5 0.038896415 0.14659087 -0.98843223 0.11972425
-9.0583248 19.703156 3.4346757 10 0.11856619 -0.69156992 -0.71251184 0.17867947
-7.0970702 19.919897 3.3492625 9 0.59260058 -0.78802145 -0.16687369 0.14306051
-6.840075 19.842518 3.3242328 4 0.64453048 -0.70045078 -0.30651134 0.11709255
0.33093497 19.763809 3.1307235 6 -0.95955592 -0.24767801 -0.13382083 0.010220342
-19.8458 20.266083 3.4827824 7 -0.0055282321 0.049599476 -0.99875385 0.093586557
-8.1994419 20.407192 3.4833267 12.5 0.22581832 -0.96608382 -0.12525219 0.15984787
-7.6468377 20.333748 3.4407763 7.5 -0.076760121 -0.9951638 -0.061293159 0.13103773
-7.3930302 20.308004 3.4229953 6.3333335 -0.1004 -0.98927528 -0.10608599 0.16258885
-6.6638379 20.484844 3.4118361 10 0.44050446 -0.88849211 -0.12859875 0.10798527
-6.3327279 20.432489 3.3880579 4 0.506787 -0.8543154 -0.11537876 0.091045707
0.19847932 20.332542 3.2205167 4 -0.97229618 -0.22033618 -0.07805194 0.0086566871
-7.2529778 20.688137 3.4722199 12.5 0.036128934 -0.99210364 -0.12010469 0.13000861
-6.731698 20.692167 3.4464083 5 0.35371506 -0.93535048 0.0022564412 0.099458247
-6.2983766 20.575357 3.4080818 4 0.36768925 -0.9235456 -0.10894168 0.077027708
0.094268367 20.774824 3.2904429 4 -0.9730348 -0.22120774 -0.065348975 0.010430685
-12.072384 21.259863 3.0018859 11 0.31508094 -0.83351833 0.45384046 0.15513261
-5.5499387 21.095213 3.4548554 10 0.47834182 -0.84020549 0.25542876 0.21985425
-5.2092957 21.440937 3.4947464 41.599998 0.29358685 -0.95230484 -0.083200648 0.26828599
-0.048630819 21.434759 3.3949413 4 -0.96448481 -0.25582349 -0.065752082 0.010434041
0.025775984 21.098984 3.3417535 4 -0.96987587 -0.23274821 -0.071896918 0.010727621
-0.12505035 21.711006 3.4387426 5 -0.9669134 -0.23899296 -0.089223541 0.0090111736
-11.206311 22.088902 3.0412498 15 0.36760923 -0.67322892 0.64158112 0.10848282
-10.695981 22.326836 3.0397465 7 0.4891085 -0.5198729 0.70036066 0.070485413
-10.47048 22.250895 3.0194352 15 0.53357583 -0.38971537 0.75061226 0.072552077
-0.20433886 22.089693 3.4988136 5 -0.96594131 -0.24594234 -0.080435105 0.0078194784
-10.540349 22.800947 3.0842695 6 0.53365177 -0.38989681 0.75046408 0.072544567
-10.302899 22.707983 3.0617645 12 0.48986712 -0.27034613 0.82882035 0.062417898
-9.3159704 22.59103 3.0004234 5 0.36210194 -0.010857579 0.93207526 0.060039558
-0.83759171 24.72801 3.0379593 3 -0.96874762 -0.24427041 -0.043127231 0.0016716246
-0.93947667 25.141514 3.0891445 3 -0.96817267 -0.21771029 -0.12346637 0.0044437833
-1.0471641 25.626007 3.1491041 3 -0.96801007 -0.22334927 -0.11433132 0.0049441867
-1.156146 26.062452 3.2032139 3 -0.97251368 -0.21332477 -0.093325458 0.0041094203
-1.2647798 26.524443 3.2604928 3 -0.9791584 -0.20133474 0.026701665 0.011315294
-1.3794352 27.043488 3.3248398 3 -0.97374576 -0.22675794 0.020000983 0.012232229
-1.5088882 27.593245 3.3930864 3 -0.96738446 -0.25278416 0.016355855 0.011792241
-1.6364533 28.124861 3.4591396 3 -0.96738446 -0.25278425 0.016355859 0.011792415
-7.1913471 -29.634928 3.744314 4 0.61521518 0.49415517 0.61426449 0.024300801
11.489228 -29.868122 3.9293115 4 -0.83321047 -0.22807738 0.50372714 0.11028834
-7.2673059 -29.278976 3.704097 4 0.61522067 0.49413672 0.61427385 0.024305394
10.44422 -29.346977 3.8247478 4 -0.83319193 -0.2280724 0.50376016 0.1102965
10.268739 -28.553787 3.7257898 4 -0.83318663 -0.22810994 0.50375175 0.1102903
11.173415 -28.732389 3.7852621 4 -0.83317256 -0.22808701 0.50378531 0.11029188
11.012309 -28.028076 3.6975162 4 -0.83317912 -0.22810476 0.50376654 0.1102978
10.176526 -27.974964 3.6551056 3 -0.56086797 0.048001155 -0.82651258 0.091695778
10.923325 -27.518976 3.6353629 7 -0.66642624 0.10625175 -0.73796117 0.086268879
10.071589 -27.242718 3.5662627 3 -0.64620686 0.062430974 -0.76060444 0.090677194
10.997537 -27.440222 3.6297569 3 -0.66643327 0.10624395 -0.73795593 0.086268224
11.228292 -27.316311 3.6263442 3 -0.66633874 0.10627391 -0.73803699 0.086275294
10.263498 -26.754135 3.5184658 3 -0.70892417 0.080787502 -0.70064247 0.088939391
4.6930919 -24.12138 3.8920898 18 0.13576138 0.91103792 0.38933104 0.1542061
5.0601478 -24.200453 3.915868 6 -0.50820571 0.86006403 -0.044908658 0.11280335
4.2906122 -23.822271 3.8338337 17 -0.023639344 0.94731379 0.31943345 0.14506347
4.7579055 -23.887323 3.8577526 11.5 0.13505676 0.91136116 0.38881963 0.15409735
3.4636579 -23.093578 3.6985803 10.5 0.22035272 0.97308582 -0.067444116 0.14372271
5.4046178 -23.206921 3.7739818 11 -0.75858396 0.63455236 -0.14796503 0.11226359
5.5071192 -23.098581 3.760998 17 -0.81442046 0.5460884 -0.19623156 0.11118012
9.9919329 -23.134289 3.9912696 6 0.26779136 0.023821451 -0.96318239 0.065570548
10.007881 -22.95079 3.9656141 6 -0.91191375 -0.01775316 0.40999779 0.065835305
10.579145 -22.656075 3.9602954 6 -0.90081322 -0.07866019 0.4270224 0.05665838
9.8468504 -22.37867 3.8723793 6 -0.90124339 -0.082016341 0.42548069 0.054449793
10.513654 -22.322424 3.9080462 6 -0.9013111 -0.081937574 0.42535242 0.054449242
-6.0107675 -21.733034 3.5713995 15 -0.16837844 0.49947381 -0.84980863 0.17213002
5.5179658 -21.506643 3.5166473 15 -0.94235438 0.1283294 -0.30903041 0.14423147
10.418533 -21.921627 3.8442211 5 -0.89730966 -0.1239351 0.42364544 0.039504003
-5.2197194 -21.477306 3.5006907 20 -0.0094180442 0.39527932 -0.91851264 0.16425902
-9.0923443 -20.906185 3.6108208 5 0.3346839 0.17732337 -0.9254961 0.08972162
2.0428782 -20.007553 3.9092948 35 -0.86748743 0.49569213 -0.041890074 0.15285708
-2.9255989 -19.812286 3.8928852 11 -0.92420793 0.38186026 0.0047306777 0.18911825
2.2210853 -19.748787 3.862992 22.666666 -0.80360526 0.52125406 0.28725031 0.1427788
-6.563405 -19.029144 3.9127293 11 0.85476488 0.49070463 -0.16907385 0.22773416
-3.3948061 -19.077627 3.7665699 11 0.21146871 0.97716343 0.020800173 0.18367575
1.7635384 -19.268278 3.7610748 33 -0.47005197 0.48258653 0.73902726 0.11356135
-7.3525658 -18.542093 3.8772392 11 -0.05620173 0.98687243 0.15140755 0.044929285
-6.6628413 -18.867596 3.8894508 11 0.58530772 0.67381299 -0.45098877 0.22283715
-5.8940568 -18.981966 3.8635008 11 0.64230973 0.46115953 -0.6121847 0.16296187
-2.0678115 -18.670258 3.6513212 10 0.2011289 0.061437495 -0.97763622 0.21703112
1.9588497 -18.543816 3.6246078 10 -0.4597764 0.67590243 0.5759874 0.10785365
3.1292682 -18.695492 3.6846173 12.75 -0.24308372 0.74888331 0.6165095 0.12616418
4.3014846 -18.940037 3.775347 22 -0.13095497 0.62683797 0.76806569 0.10050429
4.7558346 -18.549625 3.7223022 11 0.082683973 0.75424695 0.65136379 0.11585577
-9.7229776 -18.050079 3.9852369 12 0.95940739 0.27343747 -0.069061004 0.0091099218
-7.0417356 -18.49859 3.8474729 11 -0.00099087739 0.74898195 0.66258967 0.17489374
-6.6179061 -18.427162 3.8058765 11 -0.13326199 0.80701005 0.5753051 0.18649076
3.9098723 -18.083866 3.5963683 10 -0.15620947 0.89635652 0.41490191 0.082827687
4.2240391 -18.113028 3.6153219 17 -0.25996456 0.89804637 0.35486782 0.068245359
4.5811048 -18.24353 3.6562819 26 0.090349346 0.77707952 0.62288392 0.11686794
7.8293667 -18.32024 3.8726597 11 -0.069315791 0.2407034 -0.96812052 0.12884609
9.4171705 -18.005732 3.9497464 12 0.087703317 -0.01882943 -0.9959687 0.070537016
-10.055965 -17.846466 3.9818025 12 0.96437246 0.24901752 -0.089308277 0.011946014
-9.8439255 -17.830244 3.9590008 12 0.96297139 0.26018199 -0.070649706 0.010441844
3.9147928 -17.805498 3.5437047 10 -0.1561799 0.89637905 0.41486439 0.082840689
4.3817759 -17.981382 3.597513 31 -0.15237997 0.92000008 0.36108202 0.08295548
5.5909243 -17.873449 3.6402543 10 -0.051189549 0.89718461 0.43867928 0.097716436
9.3713207 -17.759262 3.9031892 11 0.18016417 0.072479308 -0.98096263 0.083782054
-10.138625 -17.016441 3.8502712 30.333334 0.95160621 0.22732802 -0.20680334 0.029653609
-9.9328718 -17.209454 3.862432 31.799999 0.95696217 0.24422014 -0.15678009 0.024534836
9.2517118 -17.323723 3.8175159 11 0.15167904 0.11338487 -0.98190504 0.078928769
-10.066748 -16.635279 3.7795448 11 0.9489612 0.19486724 -0.24799077 0.031273723
-4.4196754 -16.622036 3.9708359 1 -0.25827464 0.44022632 0.85993892 0.14723329
-10.108518 -16.2561 3.7210302 10.666667 0.95419848 0.23953106 -0.17924854 0.032978017
-10.18619 -15.946091 3.6780343 10 0.93365091 0.22231144 -0.28084472 0.023625379
-10.304342 -15.410221 3.6034281 10 0.88777101 0.19590093 -0.41651583 0.012073112
-5.9918113 -15.095093 3.7494843 12 0.34688893 0.68198341 -0.64386845 0.17102267
-3.3694897 -15.466845 3.6545546 9 -0.33573782 -0.004407174 -0.94194525 0.13051273
-7.068913 -14.558014 3.7362871 12.333333 0.90603566 -0.41775471 0.067678899 0.16331539
-5.9189939 -14.761171 3.6716511 4 -0.090831079 0.36193898 -0.92776608 0.21774845
3.2427847 -14.555102 3.9956486 15 -0.12284046 0.017718023 -0.99226826 0.082539111
8.6227856 -14.762441 3.946991 12.5 -0.63831758 -0.16257018 -0.75241059 0.060683474
-6.1689954 -14.022448 3.5369053 23 -0.24786226 0.93316489 0.26032212 0.2298855
-5.8375735 -14.121025 3.5276825 4 0.30649245 0.61921525 0.72293478 0.1811413
-5.3287282 -14.282605 3.5194342 15.666667 -0.2363385 0.48063746 0.84447128 0.10242721
-4.9330869 -14.449502 3.5249832 4 0.3407968 -0.28824124 -0.89486003 0.13940382
-2.9203544 -14.077111 3.8522627 5 -0.5817408 0.46119213 0.66998464 0.15821269
-2.3544784 -14.137669 3.8403573 15 0.10230953 0.35017893 -0.93107867 0.072277404
-1.5323443 -14.197796 3.8263807 5 -0.20394763 0.2782737 -0.93859953 0.059551701
-1.4224871 -14.100436 3.7973931 11.666667 -0.12846018 0.23802246 -0.96272701 0.059067231
2.7883596 -14.259179 3.8931563 10 -0.36006999 -0.10722449 -0.92674297 0.075662009
8.4770803 -14.172874 3.8126955 9.5 -0.86736578 -0.27688378 -0.41353586 0.012641397
8.5648394 -14.482348 3.884455 13 -0.87407786 -0.26733404 -0.4056111 0.012635083
-10.688469 -13.553475 3.9850078 5 0.75824541 0.062656127 -0.64895147 0.032571726
-6.3776264 -13.840405 3.5182345 22 -0.27968904 0.90349531 0.32476172 0.22617882
-2.2238832 -13.822371 3.7513232 5 0.14805728 0.12465798 -0.9810909 0.093901545
0.26358455 -13.66529 3.6622896 20 0.37458137 0.47293979 0.79750663 0.13019508
2.4873111 -13.879475 3.7782404 20 -0.21818855 -0.22292173 -0.95010513 0.097959109
2.5645137 -13.890934 3.7849698 15 -0.21818855 -0.22292173 -0.95010513 0.097959109
3.6292596 -13.601535 3.7720289 15 -0.12664412 0.53453571 0.83560336 0.062323358
5.3509808 -13.580456 3.9111874 6.6666665 -0.93687212 -0.28241497 -0.20618503 0.20605549
5.6325068 -13.646815 3.95592 6.25 -0.8320744 0.35320354 -0.42766741 0.13391705
8.4194231 -13.913075 3.7544332 7 -0.43103799 0.048016209 0.90105534 0.064826772
-5.7823462 -13.138363 3.8463099 7.5 0.0082773603 0.35238907 -0.935817 0.22735767
-4.6525989 -13.376773 3.7949774 23.333334 -0.23549947 -0.070158161 -0.96933889 0.088913381
-2.0044053 -13.05314 3.5385742 4 -0.10647302 -0.2304232 -0.96724802 0.061076045
-1.7363019 -13.118116 3.5460799 6.5 0.20788541 0.27556348 0.93853533 0.051738821
4.9484797 -13.081962 3.7477 20 0.3905448 0.67091382 0.63035661 0.14812234
5.310493 -13.469728 3.8798704 10 0.82666129 0.43438002 0.35769415 0.14990789
5.7310257 -13.449099 3.9172263 15 -0.86455399 -0.17935765 -0.46944341 0.14419463
-10.891482 -12.643298 3.8526618 10 0.94480038 0.30106139 -0.12928337 0.01882888
-6.292047 -12.651212 3.786005 18.333334 0.9042061 -0.23387228 -0.35737252 0.11827375
-5.1776538 -12.899333 3.7244062 15 -0.18950957 0.04783744 -0.98071277 0.054223284
-3.7494369 -12.747689 3.5604444 34 -0.37493709 0.15554349 -0.91390824 0.24105553
-2.0361645 -12.958276 3.5147629 4 0.15017945 -0.22536844 -0.96262932 0.037134379
3.1647422 -12.744417 3.5189037 4 -0.16985713 0.61325186 0.77140832 0.095946863
3.5594025 -12.629128 3.5157981 14 -0.20434996 0.75672317 0.62097597 0.073536426
5.26262 -12.914983 3.7368295 15 0.51173896 0.71033162 0.48327237 0.089584842
8.0598669 -12.520858 3.9899545 20 -0.92292756 -0.30641425 -0.23305595 0.015177554
-11.015429 -12.046582 3.7686052 11 0.96158701 0.26871219 -0.056072995 0.043278597
-10.964483 -12.287292 3.8020103 10.75 0.95534104 0.27728337 -0.10216453 0.029784504
7.9684248 -12.154052 3.8941915 17.5 -0.89350849 -0.28977558 -0.34303439 0.044158436
8.0277719 -12.380596 3.9537199 20 -0.90559024 -0.27232125 -0.32518852 0.043411527
-11.568561 -11.602299 3.7826271 10.666667 0.9205811 0.38649574 0.056136951 0.11599029
-11.150782 -11.700312 3.731668 9.8000002 0.9615739 0.27316317 -0.027519958 0.050723463
7.8580837 -11.717166 3.7803111 15 -0.96672839 -0.19303183 -0.16785376 0.12706682
-14.079653 -11.332331 3.5131755 20 -0.095839426 0.99342424 -0.062633649 0.16495465
-13.177193 -11.135481 3.9829831 14.5 -0.20459084 0.97881377 0.0081383577 0.056226276
-12.861504 -11.064107 3.9168477 9.5 -0.2352996 0.96998966 0.061271284 0.11900424
-11.263597 -11.064931 3.6452568 35.666668 0.93000871 0.36578345 -0.035865661 0.12394624
7.7397828 -11.240956 3.6569407 15 -0.96446818 -0.25016385 -0.084965162 0.059819233
-12.693161 -10.672661 3.828892 7.75 -0.13160965 0.99123943 -0.011106162 0.24200724
-12.212451 -10.842106 3.7702923 56.75 0.059493586 0.99604559 0.065983571 0.087784708
-11.694667 -10.752948 3.6678269 50.333332 0.47748628 0.86650413 0.1455241 0.1344762
-11.33478 -10.829596 3.6192825 38.200001 0.74589461 0.64235735 0.17612018 0.1073636
-8.0230751 -10.539421 3.5491858 26.5 -0.088324189 -0.022125319 -0.99584597 0.085103072
7.6546764 -10.871792 3.5627308 14 -0.96588862 -0.25221571 -0.05870552 0.07302551
-12.854065 -10.266058 3.798017 11.375 0.20180044 -0.17420207 -0.96381027 0.20048223
-8.2474575 -10.375882 3.5515151 19 0.077135898 0.0154321 -0.99690115 0.12565438
-12.949482 -9.7685881 3.7449856 14.25 0.28407177 -0.0043148901 -0.95879334 0.12169221
-13.045907 -9.1804113 3.6829627 14.142858 0.079405554 -0.066985592 -0.99458921 0.03118608
-12.986725 -9.4441128 3.7071934 14 0.28454429 -0.001592722 -0.95866156 0.10122418
-13.102723 -8.9481287 3.6631029 13 0.10332245 -0.24131332 -0.96493125 0.070250452
-13.386566 -8.1549988 3.6188624 4.3333335 0.53748018 -0.71863109 -0.4412306 0.10463792
-11.931555 -8.0206947 3.8522627 30 0.89999944 -0.42054155 0.11465564 0.061312795
-17.015615 -7.5794024 3.6207919 10 0.062563628 -0.15068957 -0.98659945 0.015520358
-16.977011 -7.6654158 3.6207919 10 0.06256181 -0.15069002 -0.98659945 0.015520694
-12.104598 -7.6581726 3.8380795 26 0.75968683 -0.65013736 -0.014045057 0.052712977
-11.96087 -7.8653517 3.8358016 39 0.75969082 -0.65013278 -0.014045903 0.052706614
-15.319984 -0.57247704 3.5393798 5 0.16157469 -0.045455147 -0.98581308 0.10289114
-15.360539 -0.25226271 3.5468783 6.5555553 0.4302476 -0.73050582 0.53032839 0.15267433
-15.386149 0.25389811 3.5528321 5.3000002 0.53333294 -0.83543199 0.13270018 0.21039003
-16.061255 0.7967658 3.7125924 15 0.21069933 -0.9731617 0.092532404 0.088964321
-15.71558 0.88644379 3.6340094 9.666667 0.19648728 -0.98033243 -0.018466525 0.098916754
-15.403997 0.62948734 3.559288 4.75 0.53306794 -0.83562899 0.13252452 0.21039623
-14.880413 0.9987886 3.9961662 25 0.54293257 -0.7363773 0.40369862 0.098804764
-14.611179 1.0548823 3.9252498 30 0.63263416 -0.65887755 0.40700662 0.093993537
-14.142853 1.2968155 3.8056178 36.111111 0.85936528 -0.48652327 0.15743718 0.12851365
-14.620968 1.880221 3.9499671 21.25 0.99273282 -0.11896788 -0.018118951 0.14500456
-14.10181 1.6123955 3.8032169 36.25 0.92693585 -0.23986164 0.28854162 0.099631809
-14.565938 2.0262642 3.9405203 5 0.96987438 -0.12179067 -0.21097577 0.11427721
-14.238179 2.2598331 3.8630185 16.666666 0.97778869 0.080401048 -0.19355872 0.073436365
-14.331345 2.736397 3.9096057 15.555555 0.87506104 0.14507505 -0.46175888 0.046518117
-14.445723 3.2295675 3.9664311 15 0.88337475 0.10964444 -0.45566112 0.037801981
-14.692103 4.2567792 3.5315814 12.666667 0.87341237 0.17458926 -0.45460922 0.019644251
-14.813737 4.7695899 3.5930307 11.875 0.92535305 0.16919748 -0.33925512 0.019635487
-14.926958 5.2675529 3.6545548 11.75 0.95641679 0.18530196 -0.22567704 0.015380688
-15.043355 5.7485042 3.7180552 10.571428 0.97196048 0.19657953 -0.12903194 0.010360844
-15.153743 6.2474976 3.7842953 10 0.9636668 0.26095897 -0.056979734 0.011725864
-15.276388 6.7669997 3.8574605 10 0.9573794 0.28642863 0.037193283 0.013223206
-15.575913 7.4543009 3.9865828 22.5 0.94060355 0.33900103 0.018524289 0.025042182
-15.330297 7.0511456 3.8957024 9 0.95853865 0.28345102 0.029311759 0.016054077
-15.517545 7.6591377 3.9951305 34 0.93082017 0.36238435 0.047449 0.028578745
