# .PCD v0.7 - Point Cloud Data file format
VERSION 0.7
FIELDS x y z intensity normal_x normal_y normal_z curvature
SIZE 4 4 4 4 4 4 4 4
TYPE F F F F F F F F
COUNT 1 1 1 1 1 1 1 1
WIDTH 615
HEIGHT 1
VIEWPOINT 0 0 0 1 0 0 0
POINTS 615
DATA ascii
1.482172 1.4451776 1.518553 0 0.2779839 0.28177214 -0.91832966 0
1.4144725 1.4690706 1.5035228 0 0.29409799 0.25371212 -0.92148614 7.8700381e-05
1.4294962 1.4688659 1.50726 0 0.30364332 0.24870968 -0.9197523 0.00044113747
1.4493747 1.4687849 1.5153033 0 0.29845321 0.25693318 -0.91919047 0.00016734951
1.4656774 1.4657035 1.5192879 0 0.29666233 0.26201895 -0.91833419 0.00043666465
1.3789062 1.4960938 1.5008024 0 0.27419639 0.2804473 -0.9198727 0.00017312498
1.3917719 1.4915351 1.5032449 0 0.27250454 0.28868607 -0.91782433 0.0001878403
1.4106339 1.4887605 1.5074253 0 0.28483567 0.27604911 -0.91796815 1.6872271e-05
1.4284501 1.4870833 1.512911 0 0.29304391 0.26502749 -0.91863257 0.00027244946
1.4450648 1.487976 1.5186858 0 0.30027649 0.26421335 -0.91652894 0.00034826066
1.3554688 1.5195312 1.5010461 0 0.28748983 0.25921872 -0.92203861 1.8400373e-05
1.372422 1.5116398 1.504039 0 0.27890176 0.26413324 -0.92328078 0.00014150204
1.391228 1.5130908 1.5098391 0 0.28130877 0.26673064 -0.92180264 0.00041164024
1.4092859 1.5109501 1.5142155 0 0.27927253 0.27030623 -0.9213801 0.00019447443
1.4280825 1.507627 1.5190958 0 0.28455317 0.27520186 -0.91831011 0.00040694184
1.3530406 1.5327938 1.5031269 0 0.28905621 0.25638962 -0.92233992 0.00019166696
1.371799 1.5309039 1.5088124 0 0.28274262 0.253153 -0.92518663 0.00029718297
1.3889303 1.5296659 1.513616 0 0.28625327 0.25472686 -0.92367381 0.00041006657
1.4047662 1.5297855 1.5190384 0 0.28518432 0.2638694 -0.92143518 0.0009646457
1.3347455 1.553425 1.5037539 0 0.28949779 0.26196098 -0.92063433 0.00037344129
1.3514898 1.5507812 1.5079434 0 0.2819286 0.25421008 -0.92514515 0.000421971
1.3697402 1.5493538 1.5132329 0 0.28010401 0.25121328 -0.92651695 0
1.3900189 1.5489974 1.5187812 0 0.28973401 0.25350222 -0.92292517 1.6648375e-05
1.315159 1.5730097 1.5030282 0 0.29095277 0.25991812 -0.92075461 1.2017049e-05
1.3320096 1.5702915 1.5079428 0 0.28618261 0.25905573 -0.92249107 0.00065585569
1.3508224 1.5678302 1.5129192 0 0.28160298 0.25635231 -0.92465299 0.00039339458
1.369503 1.5702899 1.5186089 0 0.28231865 0.25541693 -0.9246937 0.00075347384
1.294309 1.5950521 1.5024186 0 0.29290149 0.25522926 -0.92144817 0.00062735932
1.3075421 1.5889205 1.5051398 0 0.29089037 0.25325665 -0.92262876 0.00019236047
1.3308178 1.59 1.5122975 0 0.28299356 0.25139755 -0.92558849 0.00014514476
1.3505951 1.5893592 1.5183138 0 0.2829746 0.25054279 -0.92582589 0
1.3626838 1.5820312 1.5197453 0 0.28308108 0.25115317 -0.92562801 0.00027463108
1.8101562 1.5927477 1.5070312 0 0.12545054 -0.90144831 -0.41431049 0.010563833
1.8305814 1.589569 1.5117222 0 0.14041238 -0.90685326 -0.39736819 0.0074097882
1.8515625 1.589927 1.511086 0 0.16353554 -0.87346482 -0.45860144 0.017348632
1.8703402 1.5926143 1.5114684 0 0.21294197 -0.82290804 -0.52676183 0.027667888
1.8894776 1.5946116 1.5177075 0 0.36686805 -0.67564917 -0.63945758 0.027894644
1.2773438 1.6127201 1.5020834 0 0.29912293 0.26986599 -0.91525829 0.00010436419
1.2887549 1.6091211 1.5041286 0 0.29455471 0.25993949 -0.91960263 0
1.3097918 1.6090839 1.5112587 0 0.28152242 0.26062435 -0.92348254 0.00030369911
1.3322086 1.6096585 1.5181162 0 0.28296265 0.25324744 -0.92509341 0.00024629402
1.3410866 1.6054688 1.5195312 0 0.28403872 0.25244436 -0.9249832 0.00029036016
1.8790383 1.6053538 1.5038267 0 0.45314986 -0.52790701 -0.71831006 0.020876272
1.8904213 1.6096132 1.5080293 0 0.49163151 -0.38183308 -0.78262508 0.035779022
1.9071968 1.6104447 1.5165946 0 0.47415078 -0.36950362 -0.79915458 0.0186281
1.2539062 1.6367188 1.5024252 0 0.2914013 0.28235677 -0.91398025 4.6418452e-05
1.269315 1.6299763 1.5045797 0 0.28465068 0.27499956 -0.9183405 0.00021233709
1.2891716 1.630537 1.5107942 0 0.28331393 0.26865247 -0.92062968 4.117471e-05
1.3084422 1.6286701 1.5163906 0 0.28294286 0.26250076 -0.92251652 0.00045068748
1.3248764 1.6226169 1.5192413 0 0.28487691 0.26260751 -0.92189074 0
1.8950112 1.6295474 1.5036418 0 0.59312385 -0.042887609 -0.80396813 0.017774897
1.910174 1.628824 1.5143622 0 0.54661536 -0.085233368 -0.83303475 0.018174263
1.9205039 1.6210938 1.5195312 0 0.5674578 -0.10617203 -0.81652874 0.018180128
1.2382812 1.6516562 1.5022372 0 0.30283827 0.26627049 -0.91508961 0
1.2494493 1.6478992 1.5042214 0 0.28944206 0.27353513 -0.91727954 0.00023864691
1.2713716 1.6485538 1.5106288 0 0.28223339 0.26986814 -0.92060608 0.00040794106
1.2910185 1.6506981 1.5173235 0 0.27949673 0.26375034 -0.92321038 0.00047387896
1.3007714 1.6445174 1.5195365 0 0.28143239 0.2655074 -0.92211807 0.00023689035
1.8910874 1.6504447 1.506202 0 -0.6041106 -0.14568903 0.78346992 0.0062270043
1.9064941 1.6469284 1.5164571 0 -0.58785808 -0.10813093 0.80170476 0.0066727479
1.2148438 1.6757812 1.5003228 0 0.31543845 0.26783782 -0.91036338 0.00029891927
1.2313792 1.6687888 1.5040675 0 0.30546451 0.25963199 -0.91612369 0
1.251317 1.6691734 1.5105727 0 0.28627679 0.2597681 -0.92226148 0.00024928869
1.2687345 1.6672349 1.5152782 0 0.27656221 0.2555961 -0.92638212 0
1.2862198 1.664718 1.519292 0 0.27980506 0.25868267 -0.92454988 0.00033126035
1.8789062 1.6744524 1.5024599 0 -0.60917461 -0.25666836 0.75035179 0.00026257808
1.8900619 1.6685697 1.5097594 0 -0.59853512 -0.24396668 0.76304388 0.00065210415
1.9030377 1.6650522 1.5189333 0 -0.59464282 -0.25575185 0.76222759 0.00018985462
1.1992188 1.6992188 1.5017116 0 0.31855825 0.25408334 -0.9132154 7.0416834e-05
1.2111583 1.693644 1.5042206 0 0.31032905 0.25606939 -0.91549122 0
1.2298831 1.6907028 1.5098394 0 0.30122244 0.25230899 -0.91956794 0
1.2501092 1.6902603 1.5157677 0 0.28614542 0.2464488 -0.92595023 4.966561e-05
1.2667223 1.6848409 1.5191145 0 0.27701706 0.24942209 -0.92792785 0
1.8749617 1.6935745 1.5068456 0 -0.61442679 -0.29840949 0.73036402 0.00020362364
1.8889641 1.6886735 1.5162978 0 -0.61481905 -0.29147372 0.73283046 0.00025555392
1.1933603 1.712024 1.503502 0 0.31434813 0.24287152 -0.91771382 0
1.2114929 1.7107811 1.5097593 0 0.30593121 0.24066605 -0.92113298 0.0003780775
1.2304688 1.7110182 1.5154757 0 0.29648662 0.23858233 -0.92475623 0.00026113712
1.2451372 1.7092032 1.519488 0 0.28433955 0.23956551 -0.92830998 0
1.8707931 1.7119192 1.5106828 0 -0.62090385 -0.30334723 0.72281319 0
1.8846312 1.7035756 1.5195312 0 -0.61908084 -0.31108472 0.72108614 0
1.1738436 1.7365429 1.5032259 0 0.32403839 0.24306476 -0.91428596 0.00025600626
1.190904 1.7307098 1.5073322 0 0.3098006 0.24329542 -0.91914684 0.00033919903
1.2092946 1.7286696 1.5131464 0 0.29934919 0.23605447 -0.92448276 1.3244247e-05
1.2273191 1.7292523 1.518782 0 0.29819888 0.23242576 -0.92577302 7.7690929e-05
1.8540982 1.731855 1.5053031 0 -0.62961912 -0.26505682 0.73029089 0.00013295452
1.866797 1.7287183 1.5152488 0 -0.62400562 -0.27363133 0.73194462 0.0001807072
1.1523438 1.7539062 1.5007379 0 0.2962985 0.24385038 -0.92344147 0.0019635684
1.1667173 1.7504528 1.5045183 0 0.32777447 0.24336134 -0.9128741 0.00031515484
1.1898701 1.7503159 1.5124165 0 0.3097257 0.24195625 -0.91952544 0.00040238028
1.2128077 1.7502985 1.5186785 0 0.29312643 0.2417201 -0.92501259 0.00021832733
1.2226562 1.7407628 1.5195312 0 0.2939468 0.24183391 -0.92472249 0.00073979446
1.8398438 1.7539062 1.5010917 0 -0.62742645 -0.19662738 0.75344127 0.0010080633
1.8503819 1.7482884 1.5088538 0 -0.62782842 -0.21504082 0.74805683 0.001524365
1.8630965 1.748753 1.5192999 0 -0.62858146 -0.2052356 0.75017577 0.0011512393
1.1522146 1.7712643 1.503242 0 0.41067278 0.1989862 -0.88980466 0.048205785
1.1697767 1.7699579 1.5103693 0 0.32199875 0.24155317 -0.91540641 0.00046011695
1.1914387 1.7677356 1.5178452 0 0.3113009 0.24046747 -0.91938412 0.0003402452
1.2070312 1.7610652 1.5197358 0 0.30290869 0.24790634 -0.92021132 0.00069738488
1.8395265 1.7715908 1.5036442 0 -0.61866468 -0.14064714 0.7729634 0.00034083912
1.8494818 1.7697716 1.5119464 0 -0.62239325 -0.1378344 0.77047282 0.00031395967
1.8606849 1.765625 1.5195312 0 -0.6203472 -0.15110868 0.76963335 0.00050531211
1.1138886 1.7903378 1.5036302 0 -0.75001365 0.13594292 -0.64730132 0.14084074
1.1311387 1.7907373 1.5023061 0 -0.73783344 -0.34036061 0.58288622 0.18585849
1.1477727 1.7881931 1.5072811 0 0.50006837 0.20109355 -0.842314 0.11874397
1.1676718 1.7897086 1.5140237 0 0.32087985 0.25900412 -0.91101748 0.00052833528
1.1838456 1.7895329 1.5194156 0 0.32041717 0.25551543 -0.91216487 0.00050926825
1.8359404 1.7890625 1.5039376 0 -0.61958861 -0.11866443 0.77590501 0
1.8509097 1.7882578 1.5160464 0 -0.61577576 -0.11327007 0.77973717 0.00013649443
1.1132812 1.8107328 1.5100688 0 -0.48788232 0.24248646 -0.83855301 0.10844605
1.1282904 1.808099 1.5076947 0 -0.0099270167 0.28837392 -0.95746636 0.20702726
1.1492143 1.8078667 1.5135518 0 0.4795709 0.21187462 -0.85154027 0.1024999
1.1643885 1.8050333 1.5186555 0 0.32027751 0.27776182 -0.90568793 0.00024687941
1.8349277 1.8098325 1.5063611 0 -0.62128127 -0.077418514 0.7797538 0.0003436438
1.847048 1.8085938 1.5157521 0 -0.6173315 -0.058583301 0.7845189 0.00095559028
1.1108481 1.8316952 1.5183429 0 -0.23601523 0.29316261 -0.92647314 0.16540755
1.1289071 1.8301216 1.5142165 0 0.23535524 0.27792662 -0.93132418 0.25260884
1.1458216 1.8291588 1.5192624 0 0.30647266 0.27907139 -0.91005141 0.18862478
1.8345498 1.8307345 1.5075685 0 0.61959535 0.0070423991 -0.78488982 0.0010156116
1.8478422 1.8331473 1.5175331 0 0.60506094 -0.0035209837 -0.79617131 0.00052335934
1.1132812 1.842612 1.5195312 0 -0.77133232 0.31176189 -0.55484319 0.20159112
1.1292189 1.8486599 1.5166019 0 -0.85932714 0.23902242 -0.45213398 0.20665689
1.8342587 1.8515753 1.5056444 0 0.60950047 -0.059283886 -0.79056603 0
1.847363 1.8515625 1.5156509 0 0.60471922 -0.043692671 -0.79523933 0.00077660312
1.1289062 1.8632812 1.5004276 0 -0.91572654 0.18188509 -0.35827762 0.096062832
1.835462 1.8710938 1.5043665 0 0.60733753 -0.10031342 -0.78808522 0.0003664121
1.849468 1.871875 1.5157192 0 0.59406239 -0.10623795 -0.79737282 0.0012136173
1.133467 1.8938926 1.5085281 0 -0.92611283 0.15679689 -0.34311768 0.098657377
1.8368839 1.8917044 1.5034148 0 0.58705193 -0.15623075 -0.79433119 0.0015774398
1.8515955 1.8903153 1.5156924 0 0.58058023 -0.15940455 -0.79844648 0.0010320286
2.097517 1.8867325 1.5194298 0 0.52519101 -0.84811091 -0.0698727 0.17815651
2.1086564 1.8909026 1.5114121 0 0.21470821 -0.97507459 -0.055946544 0.16082618
2.1297393 1.885875 1.51055 0 -0.036998019 -0.90064776 -0.43297192 0.12574007
2.1474798 1.8889979 1.5136079 0 0.16014174 -0.90536696 -0.3932752 0.11482643
2.164417 1.8953996 1.5107739 0 0.12797788 -0.8317529 -0.54019332 0.12740958
1.1351644 1.90625 1.509142 0 -0.95194912 0.2015619 -0.23057677 0.1179546
1.142331 1.9153646 1.5030823 0 -0.94813955 0.12889618 -0.29054627 0.033200655
1.8398438 1.90625 1.5019298 0 0.57301986 -0.20351946 -0.79386902 0.0015516188
1.8508384 1.9106236 1.5083371 0 0.56023067 -0.2298014 -0.79582214 0.001079342
1.8665957 1.9123693 1.5187213 0 0.55004275 -0.2483076 -0.79736835 0.00065469579
2.1136782 1.902382 1.5131978 0 0.38266793 -0.92124015 -0.069869258 0.16257767
2.1289482 1.9098122 1.5120271 0 0.50391752 -0.85767549 0.10227346 0.1246135
2.1467278 1.9177531 1.5075226 0 0.18431722 -0.88326949 -0.43111721 0.17555095
2.1768141 1.9020042 1.5113113 0 -0.057751302 -0.90012002 -0.43179706 0.12883596
2.1873784 1.909017 1.5077999 0 0.084459499 -0.94016647 -0.33008105 0.11824898
1.1375175 1.9266714 1.513918 0 -0.95557958 0.15487553 -0.25076133 0.078386642
1.1445277 1.9295235 1.5059193 0 -0.90231019 0.14914973 -0.40446335 0.0048630629
1.8533987 1.930041 1.5039612 0 0.54730004 -0.27343133 -0.79101074 0.00044337948
1.8692913 1.929961 1.5147363 0 0.54287916 -0.27925 -0.79202372 0.00031164882
2.1523438 1.921445 1.5039062 0 0.26732168 -0.83320659 -0.48405141 0.15813778
2.1601562 1.9223108 1.5039062 0 0.041128244 -0.86618698 -0.4980247 0.14094087
1.1367188 1.9466642 1.5187445 0 -0.93479699 0.1344544 -0.32875025 0.062193748
1.145906 1.9505768 1.5096017 0 -0.90257996 0.14641288 -0.40486121 0.0047809347
1.8573947 1.9414062 1.502177 0 0.5444839 -0.28738484 -0.78800213 0
1.8708972 1.9498701 1.509158 0 0.52528781 -0.33082202 -0.78398311 0.0015645802
1.8862894 1.9512968 1.5191319 0 0.50480962 -0.34409568 -0.7916851 0.001277046
2.4344549 1.9566479 1.5164235 0 -0.6809836 -0.61185277 -0.40236479 0.070432156
2.4492188 1.9569184 1.5114981 0 -0.348129 -0.83811182 -0.41996989 0.069919951
2.4680815 1.9571326 1.5118597 0 -0.2018923 -0.9017812 -0.38213891 0.042180538
2.4882812 1.9572372 1.512144 0 0.0028419443 -0.95710516 -0.28972667 0.00047911616
2.5119998 1.9571584 1.5118957 0 0.0060085594 -0.95777559 -0.28745404 0.00031054232
2.53125 1.9570733 1.5115254 0 0.0037242416 -0.95833355 -0.28562719 0.00062797795
2.5500507 1.9570564 1.5126686 0 -0.0020596159 -0.95843482 -0.28530392 0
2.5703125 1.9571928 1.5119605 0 -0.0050554518 -0.95911908 -0.28295776 0.00076699886
2.5898438 1.9571762 1.5118608 0 -0.00647648 -0.96025532 -0.27904779 0.00079629727
2.609314 1.9570223 1.5117124 0 -0.0083237709 -0.96077693 -0.27719733 0
2.6289062 1.9567095 1.5111886 0 -0.012216968 -0.96126324 -0.27536094 0
2.6484375 1.9566088 1.5111511 0 -0.015451645 -0.96119833 -0.27542517 0
2.6679688 1.956304 1.5108365 0 -0.020870732 -0.96110666 -0.27538767 0.0001913556
2.6914062 1.9559258 1.5105416 0 -0.0207115 -0.96007186 -0.27898583 0
2.7119555 1.9558737 1.5087999 0 -0.017085142 -0.95963985 -0.28071231 0
2.7307992 1.955494 1.5093697 0 -0.01419113 -0.95895761 -0.28319445 0.00021026592
2.7503622 1.955671 1.5086377 0 -0.0094723506 -0.95893931 -0.28345311 0
2.7705557 1.9553531 1.5088931 0 -0.0070720622 -0.95361435 -0.30094776 0.001199216
2.7890625 1.9548167 1.509294 0 -0.007198398 -0.95114374 -0.30866438 0.00093348697
2.8078835 1.9545006 1.5097226 0 -0.0063180132 -0.94848949 -0.3167457 0.00079174526
2.83125 1.9540913 1.5106341 0 -0.014664305 -0.92744941 -0.37366101 0.014214236
2.8515625 1.953494 1.5117188 0 -0.019273095 -0.94534665 -0.32549691 0.0028990025
2.8710938 1.9531509 1.5117188 0 0.069302559 -0.86752456 -0.49254268 0.056500506
2.890625 1.9530472 1.5117188 0 0.034137078 -0.84718269 -0.5302037 0.051049236
2.9101562 1.9529777 1.5117188 0 0.1130798 -0.74569911 -0.65661681 0.10068018
2.9302456 1.9537059 1.5101491 0 0.16883962 -0.61747396 -0.76825714 0.1055667
2.9484313 1.9541321 1.5101619 0 0.19880699 -0.59607422 -0.77792758 0.075875953
2.96875 1.9538265 1.5125518 0 0.15597649 -0.5762943 -0.80221951 0.098792158
2.9877591 1.9551283 1.514098 0 0.13914478 -0.44862741 -0.88282061 0.096760385
3.0123887 1.9533278 1.5189798 0 0.16976807 -0.39736196 -0.90182167 0.10596753
3.0207877 1.9570312 1.5195312 0 0.24936382 -0.36306614 -0.89777535 0.075366579
1.1491812 1.9677861 1.5112319 0 -0.90824401 0.16081525 -0.38630459 0.010340382
1.8757589 1.9678789 1.5044267 0 0.49969873 -0.38942 -0.77372688 0.0018840516
1.8910551 1.9683025 1.5140265 0 0.48259386 -0.38508898 -0.78664464 0.0014563948
1.9054503 1.972604 1.5189136 0 0.45890543 -0.42307484 -0.78128964 0.0005886631
2.4336085 1.9680992 1.5118134 0 -0.8017838 -0.48315209 -0.35171971 0.081346907
2.5507812 1.9600675 1.5039062 0 -0.0016831466 -0.95825475 -0.28591049 0
2.932754 1.9735861 1.5026084 0 0.3266401 0.12394916 -0.93698609 0.11100009
2.9481609 1.9683888 1.5047209 0 0.25689346 0.10390884 -0.96083754 0.11316844
2.9712944 1.9693807 1.5106539 0 0.1667356 0.26280633 -0.9503327 0.08273378
2.9882812 1.9687481 1.5154406 0 0.23893966 0.12310357 -0.96319956 0.10954811
3.0071347 1.9665956 1.5191604 0 0.23941648 0.1615063 -0.95738995 0.13502072
1.1522621 1.9880831 1.5118523 0 -0.9318406 0.097536802 -0.34951341 0.019209551
1.8921033 1.9835732 1.5055639 0 0.46749029 -0.44183764 -0.76565814 0.00058488589
1.9099588 1.9895302 1.5115285 0 0.44250542 -0.46294314 -0.76803166 0.0004071435
1.9278024 1.9938616 1.5190744 0 0.42662913 -0.46476951 -0.77587169 0.00052200916
2.4345801 1.9882812 1.5129563 0 -0.96241397 -0.078538179 -0.25998309 0.02237598
2.8945312 1.9960938 1.500254 0 -0.31237838 -0.2932629 0.90355778 0.0084247403
2.9138765 1.9920473 1.5052713 0 -0.3735384 -0.36497971 0.85279471 0.016873527
2.9285326 1.9874992 1.5102577 0 -0.42768237 -0.39689973 0.812132 0.02805924
2.9500363 1.9855052 1.5130166 0 -0.24071254 -0.49660599 0.83393037 0.036698833
2.9672201 1.9842354 1.5158765 0 -0.26489779 -0.52635521 0.80794758 0.055242054
2.9858577 1.9812982 1.5186946 0 -0.22065532 -0.4482899 0.8662259 0.06699983
1.1550444 2.0105376 1.5130088 0 -0.93378371 0.11928689 -0.33737025 0.014389461
1.9144862 2.0074048 1.5047214 0 0.41906339 -0.50600386 -0.75388724 0.001297781
1.9298251 2.0112352 1.5102499 0 0.38664556 -0.52605671 -0.75747579 0.00062595081
1.9471869 2.01512 1.5162708 0 0.34923494 -0.55417162 -0.75559825 0.0011692025
1.9638517 2.0195312 1.5195312 0 0.30757353 -0.58633751 -0.74940437 0.00060398417
2.4360635 2.010422 1.5130936 0 -0.96319389 0.076661646 -0.25764397 0
2.8554688 2.0195312 1.5014812 0 -0.21940628 -0.39858863 0.89049876 0.00144362
2.8709061 2.0175023 1.5045146 0 -0.20889626 -0.38746458 0.89790505 0.0029121325
2.8917818 2.0115261 1.5050985 0 -0.27278394 -0.33855981 0.9005366 0.0082245003
2.9108026 2.0111647 1.5122039 0 -0.49566934 -0.31220776 0.81045556 0.019438997
2.9214945 2.0039062 1.5195312 0 -0.48856631 -0.45564285 0.74410522 0.020063339
1.1565611 2.03125 1.515625 0 -0.97452015 0.08301194 -0.20837365 0.040618777
1.1603923 2.0298886 1.5049279 0 -0.99773932 0.0029294721 0.067139201 0.05503846
1.9335938 2.022126 1.5039062 0 0.37753713 -0.5512799 -0.74401355 0.0010225798
1.951239 2.0290883 1.5067682 0 0.33334005 -0.5836072 -0.74046403 0.00038148041
1.970364 2.0303371 1.5132346 0 0.29382563 -0.60333484 -0.74138635 0.00084094185
1.9874142 2.0328796 1.5173602 0 0.27961504 -0.61338902 -0.73862678 0
2.0039062 2.0375738 1.5195312 0 0.2537764 -0.64082927 -0.72452426 0.00054171699
2.4380164 2.0304687 1.5132812 0 -0.96191102 0.082146347 -0.26072815 0
2.4410448 2.0351562 1.5024817 0 -0.96243376 0.082555816 -0.25866145 0
2.8337719 2.0321865 1.5035346 0 -0.24327895 -0.36463934 0.89880681 0.0028548741
2.850266 2.0287671 1.5058718 0 0.21090552 0.37121806 -0.90427661 0.0023222473
2.8705759 2.030813 1.512271 0 0.15172571 0.35298422 -0.92324507 0.0045322329
2.890625 2.0284965 1.5145779 0 -0.28066161 -0.32451218 0.90328342 0.0124516
2.9077497 2.0292864 1.5152138 0 -0.45868728 -0.30288094 0.83538562 0.020948553
1.1568778 2.0523438 1.5132812 0 -0.99733418 0.014723316 0.071468823 0.064307481
1.1602472 2.0488505 1.5094496 0 -0.99781185 0.042406116 0.050726902 0.058756545
1.9708776 2.0428987 1.5032063 0 0.28047398 -0.6190843 -0.73353189 0
1.990167 2.0464911 1.5074438 0 0.24052307 -0.65038645 -0.72051805 0.0007095433
2.0119421 2.0508215 1.5106072 0 0.22428419 -0.68564713 -0.6925205 0.00067035505
2.030257 2.0536213 1.5125527 0 0.23088478 -0.71057189 -0.66466522 0.001360757
2.0479393 2.0554347 1.5161079 0 0.29269701 -0.74271238 -0.60225141 0.0016096313
2.0630429 2.0585938 1.5195312 0 0.34817094 -0.75547343 -0.5550108 0.0032798122
2.4386532 2.0492187 1.5164063 0 -0.96309197 0.083077647 -0.25603127 0
2.4416294 2.0504127 1.5059303 0 -0.96364021 0.07863836 -0.25536937 0
2.7929688 2.0585938 1.5006306 0 0.24046041 0.31472155 -0.91822064 0.0023272256
2.8118129 2.0540643 1.5033612 0 0.24553485 0.30739808 -0.91935796 0.0022822567
2.8320131 2.0507724 1.5077629 0 0.23318769 0.30663168 -0.92282206 0.0017371685
2.8519561 2.0495896 1.5121881 0 0.22526036 0.31193224 -0.92301464 0.0015378238
2.8711581 2.0516634 1.5178902 0 0.16731051 0.29433605 -0.94094282 0.0034671472
2.8904066 2.0498965 1.5192535 0 0.26018527 0.23659441 -0.93612319 0.013323928
2.9059036 2.0505447 1.5191649 0 -0.32774991 -0.25758114 0.90897304 0.024284521
1.1548811 2.0711737 1.5085943 0 -0.92398214 -0.14864689 0.35236505 0.054956228
1.1601642 2.0682356 1.5135813 0 -0.98145801 -0.025034709 0.19003557 0.07050173
2.03125 2.0611956 1.5039062 0 0.22333322 -0.72940063 -0.64660418 0.00081030122
2.0515623 2.0653973 1.5057483 0 0.27318612 -0.74810481 -0.60473835 0.0010884913
2.0710554 2.0687106 1.5104601 0 0.32152849 -0.77074027 -0.55007178 0.0042572622
2.0872948 2.0743093 1.5142846 0 0.4016625 -0.80451113 -0.43752605 0.008338904
2.4395485 2.0664062 1.5195312 0 -0.96448934 0.080012411 -0.25171053 0.0014856285
2.4419937 2.0704215 1.5111074 0 -0.96487468 0.080528565 -0.25006402 0.0030445461
2.7902348 2.0733397 1.5034939 0 0.23024222 0.27226391 -0.93427026 0.00033650902
2.8077118 2.0703053 1.5070202 0 0.23316722 0.27515197 -0.93269736 0.0002458973
2.8302436 2.0701523 1.5124974 0 0.23594385 0.26518121 -0.93488473 0.0003486693
2.851969 2.0724087 1.518502 0 0.19950452 0.26670808 -0.94290233 0.0018213004
2.862721 2.0653479 1.5195312 0 0.18680684 0.2548193 -0.94877309 0.0020031999
2.8945312 2.0619655 1.5195312 0 0.20474012 0.23741399 -0.94958729 0.010971693
1.1519004 2.0915003 1.5098363 0 -0.81282449 -0.21292011 0.54220051 0.049673907
1.160304 2.0834227 1.518761 0 -0.96008551 -0.1363986 0.24419479 0.0615982
2.0941558 2.0825346 1.5074455 0 0.41158015 -0.81216311 -0.41351292 0.0068605272
2.1094153 2.0870621 1.5109185 0 0.46975562 -0.8389771 -0.27467614 0.010928458
2.1262763 2.0952535 1.5117513 0 0.55294365 -0.82335484 -0.12782869 0.011983854
2.4425967 2.0894673 1.5132122 0 -0.96567321 0.071319662 -0.24977721 0.0013272448
2.7539062 2.09375 1.5011675 0 0.23732723 0.2603192 -0.93590045 0.00018841431
2.7698901 2.0916696 1.5036927 0 0.23187518 0.26194313 -0.93681353 0.00029450847
2.7890599 2.0907321 1.5085199 0 0.23202084 0.26354212 -0.93632889 0.00015169752
2.807791 2.0890119 1.5126076 0 0.23541801 0.26587597 -0.93482 0.00010053862
2.8310542 2.0887301 1.5182085 0 0.2316785 0.262052 -0.93683177 0.00023820905
2.8424051 2.0820312 1.5195312 0 0.23546979 0.26180694 -0.93595463 0
1.1355181 2.1122508 1.5025512 0 -0.65816891 -0.25460786 0.70851147 0.016394179
1.1489539 2.1090593 1.5125877 0 -0.74560785 -0.24765743 0.6186555 0.031363849
2.1375248 2.1031418 1.5097656 0 0.5346964 -0.83969659 -0.094917774 0.011903022
2.1476135 2.1110551 1.512429 0 0.58832085 -0.80859464 0.0072968565 0.0090509234
2.1601562 2.1186309 1.5078125 0 0.56815487 -0.82283086 0.012224969 0.010768309
2.4446735 2.109375 1.5117188 0 -0.96529329 0.07005506 -0.25159717 0.0027738842
2.7382812 2.109375 1.5011932 0 0.23996651 0.2507973 -0.9378255 0.00040496531
2.7497642 2.1092277 1.503876 0 0.23772538 0.24912894 -0.93884045 0
2.7713072 2.1101174 1.5095431 0 0.23457521 0.25923732 -0.93689406 0.00037405128
2.7876263 2.1079588 1.5132269 0 0.23008853 0.26243788 -0.93711555 0.00051191379
2.808599 2.1099946 1.5187219 0 0.23066686 0.2578651 -0.93824214 0.00019072938
2.8242188 2.1009443 1.5195312 0 0.22824112 0.25786394 -0.93883556 7.4913747e-05
1.1132812 2.1365223 1.5040414 0 0.54979974 0.24982199 -0.79706287 0.0049159196
1.130073 2.1309936 1.5054128 0 -0.62111497 -0.22764887 0.74992812 0.010671097
1.1457196 2.1274471 1.5150248 0 -0.75374728 -0.19513784 0.6275239 0.045560244
2.1580119 2.1210938 1.5195312 0 0.56239098 -0.82644176 0.026653327 0.0081258733
2.1663375 2.1256218 1.5093379 0 0.54599172 -0.837116 0.033613309 0.0089375088
2.4465115 2.1296875 1.5108149 0 -0.9654339 0.062680237 -0.25299913 0
2.7148438 2.1367188 1.5018873 0 0.23628372 0.24718226 -0.93971854 4.9681526e-05
2.7320924 2.1291585 1.5037891 0 0.24483894 0.24119002 -0.93908536 0.00029588849
2.7512681 2.1310687 1.5097239 0 0.2456253 0.23768434 -0.93977362 0.00021187136
2.7686181 2.1280732 1.5130506 0 0.23902962 0.24731968 -0.93898767 0.0002029419
2.7894492 2.1286621 1.5189583 0 0.23241897 0.25351349 -0.93899542 0.00043606295
2.8007812 2.1210938 1.5199571 0 0.23304857 0.25490466 -0.93846262 0.00037710217
1.1139932 2.1471355 1.5044273 0 0.54962957 0.23716766 -0.80103612 0.0048403814
1.1294661 2.1481791 1.5092257 0 0.54750198 0.22845998 -0.80501401 0.0045685661
1.1438284 2.1463554 1.5195663 0 -0.72455001 -0.21310179 0.65545011 0.029479483
2.4479411 2.1476934 1.5092667 0 -0.9657895 0.057757221 -0.25281346 0
2.6972656 2.151947 1.5015941 0 0.2221044 0.26149935 -0.93930173 8.5473221e-05
2.7118959 2.1493292 1.5034986 0 0.23111117 0.25705463 -0.93835527 0.00012200819
2.7310824 2.1481001 1.5087092 0 0.24064094 0.24526545 -0.93911493 0.00021271483
2.74845 2.1467824 1.5130991 0 0.24617133 0.24365015 -0.93810141 4.8752987e-05
2.767791 2.1482501 1.5186471 0 0.24695446 0.24674158 -0.93708706 0
1.1179909 2.1757812 1.5117188 0 0.52916074 0.2227371 -0.81876564 0.0029555841
1.1280434 2.1676128 1.5152855 0 0.59770274 0.20953962 -0.77385044 0.0099631837
1.1405799 2.1601562 1.5195312 0 -0.66875273 -0.19699074 0.7169131 0.017057803
2.4485495 2.1679688 1.510972 0 -0.96744698 0.05044945 -0.24799444 0
2.6734402 2.1733902 1.502575 0 0.21419178 0.26810622 -0.93927681 0.00012634734
2.6907477 2.1671767 1.5046067 0 0.21882959 0.26966628 -0.93776 0.00025173486
2.7121713 2.1692111 1.5101445 0 0.22511081 0.26563656 -0.93742329 0.00013778888
2.7306402 2.1675329 1.5139248 0 0.23466647 0.2606484 -0.93647957 0
2.750361 2.1679621 1.5187473 0 0.24104029 0.25517565 -0.93636793 8.8403365e-05
1.1219444 2.1916552 1.5191343 0 -0.64074463 -0.22788984 0.73315239 0.0075294795
2.4492896 2.191607 1.5115874 0 -0.9672718 0.055205259 -0.24766453 0.00058434333
2.6367188 2.1992188 1.5010089 0 0.22771858 0.24989475 -0.94111472 8.5675238e-05
2.6496232 2.1943705 1.5028259 0 0.225145 0.25143683 -0.94132316 0
2.6665578 2.1901705 1.5055234 0 0.22360386 0.2580193 -0.93990821 0.00012665728
2.6913326 2.1913507 1.5116632 0 0.21984167 0.26153675 -0.93982345 0
2.7112703 2.1909666 1.5160742 0 0.22132343 0.27048522 -0.93693846 0.00012704315
2.7266924 2.1876843 1.5189419 0 0.22430438 0.27276367 -0.93556798 5.8912745e-05
1.1180254 2.2070312 1.5195312 0 -0.58331525 -0.29670003 0.75611675 0.0031924052
1.1210938 2.2002602 1.5195312 0 -0.5909785 -0.2880944 0.75348926 0.003113956
2.4501066 2.2116983 1.5136645 0 -0.96556735 0.065318726 -0.25181976 0
2.6318393 2.213048 1.5029399 0 0.23321205 0.24893539 -0.94002306 0
2.6466362 2.2088535 1.505805 0 0.23412658 0.25362775 -0.93854016 0
2.6684175 2.2113743 1.5115871 0 0.22578029 0.26124987 -0.9384945 0
2.6922219 2.211246 1.517278 0 0.22153272 0.26658249 -0.93800694 0.00041083325
2.7089183 2.2055657 1.5195451 0 0.2222157 0.27054286 -0.93671066 0.00016751271
2.4513659 2.2303865 1.5136291 0 -0.96428877 0.081381418 -0.25204036 0.00043188824
2.5976562 2.2382812 1.5010295 0 0.22987981 0.25600216 -0.93894523 0
2.6111283 2.232913 1.5031033 0 0.23061493 0.25158989 -0.93995708 0.00040377435
2.6277709 2.2292953 1.5065026 0 0.23770897 0.25294679 -0.93782324 0
2.648464 2.2305622 1.5117106 0 0.2353792 0.25647724 -0.9374519 0
2.6690729 2.2306111 1.5171863 0 0.23400305 0.26453897 -0.93555421 0
2.6884313 2.2235484 1.5192153 0 0.23399465 0.27454025 -0.93267041 0.00025416297
2.4544868 2.2505581 1.510264 0 -0.95677364 0.095096074 -0.27484697 0.0019567914
2.5742188 2.2539062 1.5002315 0 0.226668 0.25588238 -0.93975842 0.00030012746
2.5926108 2.2505674 1.5035487 0 0.22938609 0.25739199 -0.93868595 0
2.6104774 2.2490532 1.5077914 0 0.2338001 0.25793844 -0.93744612 0.0001289863
2.6291339 2.2488961 1.5121211 0 0.24137245 0.25694385 -0.93579876 0
2.6511037 2.2506068 1.5183192 0 0.24516402 0.26117033 -0.93364054 0
2.6627605 2.2438371 1.5196551 0 0.23866881 0.26540223 -0.93413001 0.00010558397
2.4562223 2.2690384 1.5100797 0 -0.95696801 0.086282082 -0.27706972 0.0026748842
2.5559895 2.2747395 1.5012974 0 0.25682887 0.24941777 -0.9337182 0.00024038367
2.5700448 2.2707992 1.5035827 0 0.23537099 0.25360799 -0.93823421 0.00017461025
2.5895791 2.2693114 1.5079703 0 0.23119861 0.25830951 -0.93798906 2.1471225e-05
2.6096451 2.2682004 1.5124222 0 0.23291488 0.25892073 -0.93739569 5.1009338e-05
2.629317 2.2691252 1.5178745 0 0.23810868 0.25672555 -0.93669426 0.00017818021
2.6442785 2.2614944 1.5195872 0 0.24226166 0.25569654 -0.93591058 0
2.4570773 2.2895749 1.5115184 0 -0.93534863 0.088851213 -0.34238628 0.011625864
2.5351562 2.2929688 1.5008464 0 -0.34735909 -0.24573879 0.90496087 0.0025740168
2.5509501 2.2893484 1.5037675 0 0.2825824 0.24642006 -0.92705148 0.0015966281
2.5725646 2.2911501 1.5095936 0 0.2346894 0.25232986 -0.93874949 0.00058781565
2.5886116 2.2880294 1.5128995 0 0.23227637 0.25584093 -0.93839926 1.8818309e-06
2.6102841 2.2899539 1.518643 0 0.23691501 0.2592333 -0.93630624 0.00019309623
2.6210938 2.2827818 1.5195312 0 0.23393196 0.25695235 -0.937684 0.00036435144
2.4573848 2.3078125 1.514573 0 -0.93356693 0.070883624 -0.35132372 0.016042337
2.4604583 2.3125 1.5039062 0 -0.85522735 0.067723438 -0.51380903 0.036277022
2.5322909 2.309793 1.5039643 0 -0.34595767 -0.22940342 0.90977323 0.0024202734
2.551842 2.3095231 1.5094684 0 0.29414728 0.23711382 -0.92588037 0.0020386102
2.5690053 2.3073912 1.5129006 0 0.24310276 0.24720301 -0.93797207 0.00027896548
2.5881507 2.3085816 1.5183934 0 0.23748194 0.25415513 -0.937554 0
2.601428 2.3007812 1.5195312 0 0.23525073 0.2570262 -0.93733382 0
1.1679688 2.3398438 1.5006239 0 -0.95349687 0.079487927 -0.29073259 0.010037232
2.4584568 2.3287785 1.5169271 0 -0.90944332 0.10651389 -0.40195477 0.027979322
2.4614756 2.3339844 1.5058594 0 -0.82271791 0.099083677 -0.55974787 0.037531801
2.5195312 2.3398438 1.5018351 0 -0.34356171 -0.23289548 0.90979391 0.0024719818
2.5302305 2.3329384 1.5086337 0 0.34798342 0.20805338 -0.91412318 0.0021088801
2.5499542 2.3301904 1.5140828 0 0.3160477 0.20351397 -0.92665851 0.0024581307
2.5691199 2.3293602 1.5191056 0 0.2476403 0.22416627 -0.94256234 0.0010616165
1.168425 2.3508403 1.5037869 0 -0.95816982 0.063210614 -0.27913252 0.01178016
2.4590766 2.3515625 1.5195312 0 -0.89027137 0.12786712 -0.43711197 0.041477848
2.4616919 2.3515625 1.5078125 0 -0.65855139 0.1171177 -0.7433663 0.064532392
2.5133624 2.3525043 1.5037048 0 0.31956977 0.227603 -0.91982174 0.0030563707
2.5279486 2.3503785 1.5122838 0 0.32318103 0.17969695 -0.92911947 0.003255506
2.5480249 2.3503537 1.5192158 0 0.31372339 0.15995793 -0.9359439 0.0029826271
1.1719495 2.3710938 1.5056964 0 -0.94868475 0.070595659 -0.30824253 0.0094391657
2.4599979 2.3710938 1.5195312 0 -0.86832613 0.15723883 -0.47041014 0.037621427
2.4635148 2.3726563 1.5089049 0 -0.7779792 0.18303306 -0.60103852 0.043730598
2.4907713 2.3729253 1.5034175 0 -0.094171114 0.25542873 -0.96223068 0.06782531
2.5112791 2.3708105 1.50813 0 0.25915807 0.22421528 -0.93944907 0.0025393583
2.5298998 2.3693576 1.5153154 0 0.30288589 0.17346938 -0.93710649 0.0032251265
2.5488799 2.3739846 1.5187802 0 0.24944441 0.14166224 -0.95797145 0.0029377982
1.1738379 2.3888156 1.5086734 0 -0.93439728 0.087906003 -0.34521633 0.0065270988
2.4672456 2.3895154 1.5079771 0 -0.6186676 0.27814999 -0.73476726 0.068769924
2.4882812 2.3906581 1.507777 0 -0.034744076 0.31128541 -0.9496811 0.045515493
2.509346 2.3898063 1.5128181 0 0.22656181 0.26166645 -0.93818992 0.0044573243
2.5304811 2.391957 1.5184888 0 0.23640476 0.27231666 -0.93271452 0.0057803937
2.5431483 2.3868611 1.5194739 0 0.2455018 0.16642758 -0.95500296 0.0030712185
1.1741583 2.4087093 1.5136319 0 -0.96937561 0.047659721 -0.24091357 0.01375159
1.1800328 2.4101562 1.5039062 0 -0.97278702 0.053734064 -0.22538444 0.013918319
2.2729788 2.4176807 1.5100217 0 -0.085285015 -0.98536545 0.14758535 0.18469013
2.2871094 2.4141471 1.5086495 0 -0.35312444 -0.89377695 0.2765246 0.17284277
2.4671843 2.4109347 1.5125511 0 -0.63236439 0.34429038 -0.69395918 0.068819977
2.4878078 2.4098334 1.5124277 0 -0.089572564 0.36575496 -0.92639089 0.047613665
2.5097988 2.4098036 1.5185261 0 -0.22658825 -0.45869535 0.85921842 0.014347354
2.5221744 2.4023438 1.5195312 0 -0.2503939 -0.36800936 0.89547306 0.010980928
1.1760626 2.4307425 1.516569 0 -0.94911939 0.20410165 -0.23982254 0.034294624
1.1824545 2.4309895 1.5033121 0 -0.99333751 0.025372803 -0.11241348 0.039742045
2.2384505 2.4342189 1.5195312 0 0.399382 -0.78110379 0.47996974 0.18222041
2.2503235 2.4288948 1.5102483 0 0.11546814 -0.81994116 0.56068134 0.15780687
2.2636719 2.4214897 1.5136719 0 -0.11753169 -0.92738903 0.35515624 0.19339052
2.2992816 2.4335938 1.5039062 0 -0.39520824 -0.91740972 0.046581961 0.15108249
2.4687293 2.4259007 1.5168215 0 -0.47671005 0.25754002 -0.84048837 0.13442309
2.4894359 2.4261115 1.5186331 0 -0.053314842 0.51621139 -0.85480011 0.066435747
1.1783048 2.4440105 1.5169271 0 -0.98453158 0.097999714 -0.14523666 0.075983755
1.1829728 2.450834 1.507148 0 0.85889184 -0.49392465 -0.13543755 0.1039883
1.5585938 2.4590418 1.5117188 0 -0.34760675 -0.92119712 -0.17482938 0.033887386
1.5675881 2.4559135 1.5117188 0 -0.25249904 -0.95208013 -0.17259115 0.04509598
1.5868607 2.4565644 1.5092894 0 0.097494848 -0.99303979 -0.066082187 0.029061539
2.2379253 2.4415491 1.5192484 0 -0.75561917 -0.038451184 -0.65388161 0.2099538
2.2502604 2.4425426 1.5119798 0 -0.39130056 0.54052448 -0.74479342 0.21344866
2.2677393 2.4470422 1.5143337 0 -0.75457096 0.38213375 -0.53347576 0.19401081
2.2851503 2.4418972 1.5098654 0 -0.39365998 0.59012955 -0.70482546 0.20850727
1.1786524 2.4648438 1.5078125 0 0.7278235 -0.66913706 -0.15009552 0.15331812
1.1912845 2.4690959 1.5113857 0 0.54464918 -0.79501069 -0.26704919 0.10934619
1.2117007 2.471076 1.5088537 0 0.21013963 -0.9531014 -0.21780506 0.027953865
1.2303159 2.4715474 1.5091525 0 0.045899857 -0.96179652 -0.26988998 0
1.2492943 2.4722369 1.5115898 0 0.044050366 -0.96255893 -0.26746926 0.00016445234
1.2689288 2.4728267 1.5119932 0 0.04107742 -0.9627983 -0.26708052 0
1.2890625 2.4733746 1.5123273 0 0.033769827 -0.96150523 -0.27270359 4.3601231e-05
1.3086656 2.473835 1.5136735 0 0.026815536 -0.96145505 -0.2736516 0
1.3322498 2.4742327 1.5141208 0 0.021171641 -0.96061546 -0.27707356 0.00083633582
1.3521811 2.474179 1.5148733 0 0.01926546 -0.9606027 -0.27725691 0.00031319819
1.3710938 2.4757452 1.5117188 0 0.021227183 -0.96147859 -0.27405873 0.00062139402
1.390625 2.4759102 1.5117188 0 0.022122102 -0.96272439 -0.26957825 0
1.4101562 2.4765484 1.5117188 0 0.016999068 -0.96093541 -0.27625024 0
1.4296875 2.4769514 1.5117188 0 0.016425304 -0.9611277 -0.27561507 0.0013522031
1.4492188 2.4773188 1.5117188 0 0.015906479 -0.96011466 -0.27915365 2.0325184e-05
1.46875 2.4775066 1.5117188 0 0.018134585 -0.95861578 -0.28412488 0.0023280673
1.4871652 2.4770982 1.5139509 0 0.0094313305 -0.95698065 -0.28999862 0.00031286723
1.5106027 2.4773157 1.5139509 0 -0.045071211 -0.94758052 -0.31632212 0.0042522498
1.5321748 2.4759908 1.5164063 0 -0.30207434 -0.91118687 -0.28016004 0.023077926
1.5464578 2.4672024 1.5115491 0 -0.35216093 -0.8849957 -0.30457398 0.031474207
1.5963478 2.4632103 1.5156153 0 0.30147883 -0.95037967 0.076739118 0.0094863335
1.6092137 2.4706779 1.5108513 0 0.34505031 -0.938555 0.007403376 0.006646106
1.6257813 2.4781799 1.5148437 0 0.21374196 -0.97136521 -0.10375019 0.014068163
1.6484375 2.478919 1.5195312 0 0.097202569 -0.97452074 -0.20214111 0.0084502688
1.6679688 2.4795611 1.5195312 0 0.02183884 -0.95954305 -0.28071359 0.00074477331
1.6875 2.4795671 1.5195312 0 -0.0037063803 -0.9568882 -0.29043323 1.8828103e-05
1.7109375 2.4794064 1.5195312 0 -0.023666129 -0.95649558 -0.29078543 0.0016125876
1.7304688 2.4785833 1.5195312 0 -0.025743943 -0.957623 -0.28687185 0.00079583371
1.7486979 2.4783256 1.5169271 0 -0.016491964 -0.9593004 -0.28190547 0.00026953183
1.7695312 2.4781411 1.5195312 0 -0.00072575122 -0.95926172 -0.28251806 0.00064065587
1.7890625 2.477874 1.5195312 0 0.0014245373 -0.95819384 -0.28611621 0
1.8085938 2.4780478 1.5195312 0 0.00433943 -0.95716268 -0.28951803 0
1.8304688 2.4789255 1.5164063 0 0.018417871 -0.95824379 -0.28535905 0
1.8515625 2.4786081 1.5195312 0 0.020961324 -0.96239769 -0.27083439 0.0010433058
1.8671875 2.4792125 1.5195312 0 0.015322274 -0.96510649 -0.26140928 0.0008688611
1.890625 2.4796429 1.5195312 0 0.020066014 -0.96454966 -0.26313764 0.00051532156
1.9023438 2.4786379 1.5195312 0 0.015952492 -0.96074647 -0.27696893 0
2.0136719 2.4788766 1.5175781 0 -0.060840148 -0.95551419 -0.28860217 0.0023231204
2.03125 2.477896 1.515625 0 -0.038556669 -0.95585221 -0.29130739 0
2.0507812 2.4780152 1.515625 0 -0.0025526795 -0.95918643 -0.28276286 0.00080382422
2.0703125 2.4783933 1.515625 0 0.018960305 -0.9584558 -0.2846103 0.00084324426
2.0898438 2.4777083 1.5195312 0 0.017504776 -0.96001482 -0.27940115 0.00023242326
2.109375 2.4780965 1.5195312 0 0.012500093 -0.96033567 -0.27856615 0
2.1289062 2.4783573 1.5195312 0 0.0027951968 -0.96048862 -0.27830523 0.0016748026
2.1484375 2.4782026 1.5195312 0 -0.0041823108 -0.95980597 -0.28063342 0.00075341907
2.1699219 2.4782572 1.5175781 0 0.0049229963 -0.96091425 -0.27680236 0.00088867231
2.1894531 2.4786291 1.5175781 0 0.0087926006 -0.96067572 -0.27753362 0.0012292548
2.2109375 2.4791608 1.5195312 0 -0.038955279 -0.93315232 -0.35736418 0.041073475
2.2304688 2.4784284 1.5195312 0 -0.11822162 -0.87948298 -0.46101341 0.11102837
2.251302 2.4787822 1.5169271 0 -0.24299651 -0.84373695 -0.4786028 0.13911745
2.2710938 2.4786687 1.5164063 0 -0.088159226 -0.80433136 -0.58760446 0.15295137
2.2890625 2.4785943 1.515625 0 0.056086201 -0.88690341 -0.45853764 0.15284808
2.3085938 2.4777453 1.515625 0 0.081072539 -0.94053626 -0.3298769 0.082957543
2.3320312 2.4772785 1.515625 0 -0.034047265 -0.96043801 -0.27640489 0
2.3523438 2.4772816 1.5132812 0 -0.041787386 -0.9609378 -0.27359167 0
2.3710938 2.4764733 1.5117188 0 -0.052610759 -0.96307021 -0.26406032 0
2.390625 2.4754226 1.5117188 0 -0.051096283 -0.96367162 -0.26215702 0.00092364266
2.4104233 2.473964 1.51335 0 -0.038814679 -0.96400893 -0.2630212 0.00081878999
2.4296875 2.4735227 1.5127884 0 -0.026927108 -0.96206307 -0.27149498 0.00034041039
2.4492188 2.4730878 1.5122217 0 -0.018111899 -0.96156579 -0.27397653 0
2.4685297 2.4728298 1.5117002 0 -0.010049525 -0.96094906 -0.27654284 0
2.4884195 2.4727507 1.5117457 0 -0.017373605 -0.93221712 -0.36148217 0.04103741
2.5122058 2.47293 1.5118496 0 -0.0042932965 -0.95960736 -0.28130969 0
2.53125 2.47293 1.5116353 0 -0.010922296 -0.95956898 -0.2812615 0
2.5507812 2.4725313 1.5115557 0 -0.020103948 -0.95979184 -0.27999195 0
2.5703125 2.4722564 1.5111287 0 -0.019687179 -0.96022433 -0.27853468 0
2.5898438 2.471885 1.5106758 0 -0.012558364 -0.95992607 -0.27997172 0.0012555809
2.609375 2.4717577 1.5106241 0 -0.0043527717 -0.96006787 -0.2797333 0
2.6289062 2.4717989 1.5106789 0 -0.0025574081 -0.96068037 -0.27764484 0
2.6484375 2.4718356 1.5109117 0 0.0032963203 -0.96059775 -0.27792299 0.0014744061
2.6679688 2.4716799 1.5103616 0 -2.4426283e-05 -0.96117443 -0.27594146 0
2.6914062 2.4718742 1.5109035 0 0.0040135891 -0.96070534 -0.27754122 0.00040987972
2.7109375 2.4718342 1.5106885 0 0.0055187996 -0.95999211 -0.27997261 0.00026806691
2.7304688 2.4719703 1.5106773 0 0.0052393689 -0.95846391 -0.28516573 0
2.75 2.4721019 1.5111532 0 0.012585185 -0.9575215 -0.2880871 0
2.7695312 2.4720495 1.5112261 0 0.01644625 -0.95588416 -0.29328313 0.00036940325
2.7894144 2.4724603 1.5115904 0 0.013492868 -0.9546333 -0.29747802 0.00029858932
2.8085938 2.4730728 1.5122961 0 0.0044792183 -0.95303637 -0.30282277 0
2.8320312 2.4728818 1.5119671 0 -0.01600872 -0.95357573 -0.30072752 0.00030291494
2.8502874 2.4720678 1.5111032 0 -0.01705914 -0.95431983 -0.29829955 0
2.8710938 2.4718368 1.5109514 0 -0.0092371944 -0.95431191 -0.29866955 0
2.890625 2.4722433 1.5111927 0 0.0022603229 -0.95509708 -0.29628435 0.0014686177
2.9101562 2.471926 1.5108563 0 -0.0089794034 -0.95573628 -0.2940875 0
2.9296875 2.4719884 1.5108147 0 -0.010753028 -0.95759642 -0.28791228 0.00070717715
2.9492188 2.4715602 1.5104533 0 -0.022135261 -0.95889717 -0.28288904 0
2.9694529 2.4714918 1.5094531 0 -0.028229097 -0.96255213 -0.26962295 0
2.9877336 2.4709718 1.509271 0 -0.033241726 -0.96341348 -0.26595002 0.0012555333
3.0109375 2.4696221 1.5107921 0 -0.033909246 -0.96424741 -0.2628254 0
3.03125 2.4686973 1.5117188 0 -0.0268595 -0.96358168 -0.26606172 0
3.0498047 2.4679046 1.5126953 0 -0.021298883 -0.96425009 -0.26413664 0.00079364562
1.4179688 2.4804688 1.5001243 0 0.018690698 -0.96188998 -0.27279708 0
1.453125 2.4804688 1.5004859 0 0.020685788 -0.95956725 -0.28071851 0.0017120249
1.46875 2.4804688 1.5008018 0 0.017737178 -0.95735282 -0.28837672 4.6366749e-05
1.4898437 2.48037 1.5033361 0 0.010685617 -0.9560374 -0.29305023 0.00029159442
1.5134023 2.480514 1.5038071 0 -0.022631893 -0.94953835 -0.31283328 0.0062703863
1.5290838 2.4806082 1.5044235 0 -0.17366873 -0.90929806 -0.37817475 0.020661235
1.5433779 2.4807584 1.5043865 0 -0.34969822 -0.85948342 -0.37282622 0.030243363
1.631207 2.4810345 1.5081221 0 0.25430009 -0.96430135 -0.073854186 0.01383412
1.6484375 2.4819548 1.5100822 0 0.11775177 -0.97877282 -0.16774459 0.00771556
1.6679688 2.482121 1.5103141 0 0.03719129 -0.96320891 -0.26616809 0.0012146434
1.6921875 2.4822135 1.5118113 0 -0.0081974864 -0.9581961 -0.28599465 0.00027332513
1.7109375 2.4822636 1.5106297 0 -0.023167191 -0.95706469 -0.28894711 0.0012056638
1.730785 2.481297 1.5095917 0 -0.027863134 -0.95742077 -0.28734851 0.00093056267
1.7521152 2.4811256 1.5084609 0 -0.014416566 -0.95944911 -0.28151298 0
1.7698158 2.4809632 1.5093368 0 -0.0026409335 -0.95950323 -0.28168517 0.0010058767
1.7895538 2.4811997 1.5098704 0 0.0029367125 -0.95922273 -0.28263584 0
1.8093643 2.4812584 1.5097451 0 0.0067824456 -0.95910674 -0.28296298 0.00061382825
1.8331473 2.4814296 1.5074328 0 0.01335656 -0.96135563 -0.27498561 0
1.8502718 2.4816585 1.5100908 0 0.019267449 -0.96296453 -0.26893875 0.00069112261
1.871875 2.4816782 1.5114642 0 0.012705139 -0.96554923 -0.25991032 0
1.890625 2.4819911 1.5107393 0 0.019205993 -0.9652819 -0.26050314 0.0011483907
1.9116099 2.4815733 1.5141252 0 0.015824361 -0.95979339 -0.28026071 0.00045355764
1.9296875 2.4834509 1.5117188 0 0.017351193 -0.95490956 -0.29638955 0.00012207199
1.9513134 2.4824677 1.5136205 0 0.0032826327 -0.95391619 -0.30005506 0
1.9701083 2.4820623 1.5143111 0 -0.016776053 -0.95583624 -0.29342079 0
1.9889827 2.4821651 1.5135833 0 -0.043246493 -0.9575305 -0.28507036 0.00057927758
2.0110292 2.4814835 1.5093687 0 -0.057434622 -0.95782036 -0.28156981 1.2739505e-05
2.03125 2.4810588 1.5057516 0 -0.035070032 -0.9582715 -0.28370011 0.00090377795
2.0507812 2.4809353 1.5052963 0 0.0027927894 -0.96045065 -0.27843627 0.00083678128
2.0703125 2.4810786 1.5061654 0 0.016728643 -0.96064615 -0.27727094 0
2.0898438 2.4809494 1.5087556 0 0.018989824 -0.95994914 -0.2795299 0.0010617629
2.1105096 2.4809048 1.509614 0 0.010458638 -0.96123362 -0.27553698 0
2.128803 2.4812381 1.5094044 0 0.001480178 -0.96072984 -0.2774815 0
2.1486781 2.4811871 1.5096147 0 -7.3271708e-06 -0.96079421 -0.27726218 0.00071921956
2.1669922 2.4811766 1.5083287 0 0.0032291927 -0.96086282 -0.27700573 0.0031349177
2.1927953 2.4811921 1.5089021 0 0.0077134087 -0.96120781 -0.27571723 0
2.2109375 2.481405 1.5098968 0 0.0078107105 -0.96078551 -0.27718264 0.00059359276
2.2304688 2.4814615 1.5094432 0 -0.073670246 -0.89873111 -0.43226737 0.07407742
2.2499015 2.4811039 1.5092326 0 -0.082537986 -0.84198105 -0.5331561 0.10852082
2.2681227 2.4811866 1.5084431 0 -0.11434269 -0.84131271 -0.5283168 0.14703348
2.2890625 2.4812417 1.5066509 0 -0.0039165406 -0.84045684 -0.54186428 0.11815204
2.3105202 2.4806035 1.5046005 0 -0.027580565 -0.96107042 -0.27492371 0.00075721339
2.3320312 2.4807274 1.5048348 0 -0.037022077 -0.9604339 -0.27603623 0
2.3487291 2.4803841 1.5030153 0 -0.04572314 -0.96254963 -0.26722211 0.0012289629
2.3632812 2.4804688 1.5002701 0 -0.059026159 -0.96222579 -0.26577714 0
1.7734375 1.1367188 1.5230241 0 0.28121999 0.25129396 -0.92615694 0.00056367059
1.7895286 1.1356235 1.5274802 0 0.27097014 0.25987104 -0.92684531 0.00074560026
1.8076866 1.1330174 1.5293245 0 0.26631382 0.26193482 -0.92761362 0.00058257906
1.8279665 1.1338034 1.5349958 0 0.26179487 0.25610349 -0.93052375 0.00055326568
1.7539062 1.1523438 1.5213349 0 0.29686806 0.21104108 -0.93130606 0.00074474083
1.7709451 1.1514086 1.5259519 0 0.27815697 0.23002218 -0.93258703 0.0015405645
1.7890129 1.1478004 1.5283507 0 0.26800403 0.24907741 -0.93066335 0.0010322507
1.8080742 1.1481096 1.5353669 0 0.26951528 0.24294332 -0.93184763 0.00095254718
1.8242188 1.1445312 1.538718 0 0.26405528 0.25114787 -0.93123549 0.00021134548
1.7512022 1.1690848 1.523738 0 0.30118936 0.20802504 -0.93059689 0.001388955
1.7671762 1.1671944 1.5289378 0 0.29489312 0.21272542 -0.93155026 0.00069567777
1.7892241 1.1683016 1.5352184 0 0.27077755 0.2234198 -0.93635637 0.00092606776
1.8046875 1.1640625 1.53836 0 0.27067205 0.23030053 -0.93471825 0.00090875779
1.7335937 1.1945312 1.5228049 0 0.26159078 0.24008159 -0.93484282 0.00087480014
1.7499123 1.191273 1.5272251 0 0.27336392 0.21921988 -0.93659747 0.0012160016
1.7712687 1.1922036 1.5331711 0 0.29276672 0.20563208 -0.93381107 0.00045312761
1.7862062 1.1882813 1.5376593 0 0.27874547 0.20996673 -0.93713123 0.00048622512
1.6992188 1.2148438 1.5210681 0 0.24603117 0.24196965 -0.93857306 0.00094741362
1.7109375 1.2109375 1.5232794 0 0.24637939 0.24798746 -0.93690944 0.00042115024
1.730646 1.211118 1.5273373 0 0.24131587 0.24108663 -0.9400233 0.00067537738
1.7508483 1.2119491 1.5335679 0 0.26110587 0.227109 -0.93821388 0.00030849531
1.7667384 1.2087951 1.5365051 0 0.27578536 0.21550126 -0.93675059 0.000112475
1.6960938 1.2320312 1.5226496 0 0.25787428 0.23000944 -0.93840104 0.00043320449
1.7117972 1.2312961 1.5269257 0 0.24150234 0.23376939 -0.94182187 0.00059064582
1.731723 1.2316307 1.5327245 0 0.24215886 0.23166341 -0.94217354 0.00048654352
1.7484465 1.2289969 1.5364263 0 0.25625882 0.23840854 -0.93674588 0.00055412122
1.7617188 1.2265625 1.5390599 0 0.2735188 0.2316028 -0.93356711 0.00025754064
1.6757812 1.25 1.5224514 0 0.27585736 0.23038447 -0.93318045 0.00017947305
1.691323 1.2514322 1.5266131 0 0.26120892 0.22224632 -0.93934894 0.00047679688
1.7088721 1.2492187 1.5306654 0 0.24845324 0.22335877 -0.94254011 0.00012082681
1.7277402 1.2494464 1.5355924 0 0.25328985 0.23414035 -0.93862802 0.00042988957
1.7460938 1.2460938 1.5388032 0 0.26372731 0.24950273 -0.93177056 0.00027958653
1.6523438 1.2773438 1.5215019 0 0.25706047 0.27331719 -0.92693996 0.00036573512
1.6701627 1.2716703 1.5258636 0 0.25557628 0.25700933 -0.93200159 0.00085994601
1.6918501 1.2701248 1.5315741 0 0.26413459 0.24002194 -0.93414265 0.00019682638
1.7105682 1.2674341 1.5362837 0 0.25762039 0.2394945 -0.93609518 0.0001915126
1.7226562 1.265625 1.5388819 0 0.26292223 0.24423586 -0.93339211 0.00012962268
1.6341146 1.2903646 1.5221277 0 0.25181887 0.27712786 -0.92724729 0.00059648266
1.6504278 1.2909108 1.5264262 0 0.2456494 0.27609092 -0.92920947 0.00035366431
1.6679688 1.2898738 1.5302746 0 0.24040601 0.2671766 -0.93317825 0.00062196655
1.6901276 1.2893285 1.5355489 0 0.25507483 0.25275871 -0.93330055 0.00039359249
1.7070312 1.2851562 1.5380715 0 0.25852218 0.24367617 -0.93476641 0
1.6113281 1.3105469 1.5216224 0 0.28247806 0.25202358 -0.92557567 0.00039607246
1.6297708 1.3095031 1.5263661 0 0.25983539 0.25922695 -0.93020803 0.00062339375
1.6490571 1.3097284 1.5317104 0 0.24511333 0.25948092 -0.93412477 0.00041920412
1.6676519 1.3081143 1.5355346 0 0.23988542 0.26751781 -0.93321449 0.00051893119
1.6861979 1.3033854 1.5384336 0 0.24463919 0.26820815 -0.93178117 0.00017663557
1.5950521 1.3372396 1.5220298 0 0.26931646 0.24163441 -0.93224543 0.00044733877
1.6103444 1.3332522 1.5260671 0 0.27028528 0.23164992 -0.9344967 0.00027585877
1.6293348 1.3315239 1.5314014 0 0.27262866 0.2282698 -0.9346478 0
1.6478258 1.3304963 1.5365767 0 0.26274168 0.23736857 -0.93521279 1.2653328e-05
1.6601562 1.3242188 1.5382931 0 0.25059864 0.24762054 -0.93588704 0.00068237144
1.5742188 1.3554688 1.5221463 0 0.25514391 0.24846056 -0.93443513 0
1.5918705 1.3526098 1.5254865 0 0.26070401 0.24049667 -0.93498379 0.00043626071
1.608304 1.3504697 1.5290772 0 0.2620182 0.23191935 -0.93678164 0.00017611876
1.6287571 1.3512397 1.5353676 0 0.27413517 0.23174107 -0.93335199 0.00016006785
1.6445312 1.3476562 1.5387582 0 0.26999405 0.23591448 -0.93351352 7.3423616e-05
1.5527344 1.3769531 1.5218726 0 0.27797255 0.2291683 -0.93285221 0.00026197295
1.5721654 1.3727256 1.525619 0 0.25172111 0.23935044 -0.9377355 0.00031983462
