# .PCD v0.7 - Point Cloud Data file format
VERSION 0.7
FIELDS x y z intensity normal_x normal_y normal_z curvature
SIZE 4 4 4 4 4 4 4 4
TYPE F F F F F F F F
COUNT 1 1 1 1 1 1 1 1
WIDTH 603
HEIGHT 1
VIEWPOINT 0 0 0 1 0 0 0
POINTS 603
DATA ascii
2.7121487 1.8074777 1.6946589 0 -0.29309702 0.0016339293 -0.95608133 0
2.7283268 1.8099775 1.689446 0 -0.2863735 0.012000899 -0.95804292 0.00049327058
2.7487748 1.8078489 1.6830429 0 -0.29910442 0.026865695 -0.95384216 0.00042016854
2.7617188 1.8085938 1.6801369 0 -0.29255873 0.025791349 -0.95589966 0.00097398926
1.7187964 1.8335937 1.6867187 0 -0.98876798 -0.00046465988 -0.14945751 0.0010646114
2.6981709 1.8320312 1.6987453 0 -0.2881425 -0.011727129 -0.95751578 0.0010894369
2.7109375 1.8320312 1.6963 0 -0.28030103 -0.01123646 -0.95984632 0
2.729286 1.8320312 1.6902341 0 -0.2821053 -0.0061682821 -0.95936364 0
2.7513952 1.8322521 1.6839827 0 -0.27735397 -0.0093941167 -0.96072185 0.0022202667
2.7617188 1.8320312 1.6806875 0 -0.28311473 0.0008236182 -0.95908564 0.0012698059
1.7163793 1.8498957 1.6891631 0 -0.99951833 0.0043975394 -0.030720025 0.0077505098
2.6979585 1.8515625 1.6987021 0 -0.27024299 -0.020149469 -0.96258122 0.0021474133
2.7125139 1.8507812 1.6933991 0 -0.2753031 -0.0058177323 -0.96133983 0.0011459931
2.7280195 1.8512001 1.6893748 0 -0.28390351 -0.014665426 -0.95874077 0.00077321363
2.7499328 1.8524811 1.6834217 0 -0.27989089 -0.034783967 -0.95940143 0.00092009583
2.7617188 1.8554688 1.680335 0 -0.27795336 -0.041748185 -0.95968699 0.00098469213
1.7191689 1.8710938 1.6891741 0 -0.98890787 0.0068818671 -0.14837068 0.0010794519
2.6927974 1.8704414 1.6982535 0 -0.26284409 0.001196019 -0.96483761 0.0023958189
2.7109375 1.8710938 1.6939045 0 -0.25676969 -0.00081692566 -0.96647221 0.00091081596
2.7281647 1.8709878 1.689463 0 -0.29130134 -0.0094060991 -0.95658511 0.0014551936
2.7483683 1.8666891 1.6832819 0 -0.28507528 -0.025732072 -0.95815963 0.00018293451
2.7617188 1.8671875 1.6802882 0 -0.2833167 -0.031422954 -0.95851147 0.0011975887
1.7191695 1.890625 1.6875 0 -0.99127591 0.014624153 -0.13098884 0.0019131921
2.6961713 1.8896761 1.6993936 0 -0.25628108 0.030710798 -0.96611434 0.001443039
2.7090373 1.8898437 1.6969881 0 -0.25351143 0.034952041 -0.96670073 0.0014951311
2.7286005 1.88948 1.6904482 0 -0.30528542 0.030149192 -0.95178354 0.00036517406
2.7482636 1.8903221 1.6837255 0 -0.30229127 0.020254968 -0.95300037 0.0014831218
1.7175503 1.9082024 1.6884464 0 -0.99195957 0.015248837 -0.12563276 0.00066946464
2.6992188 1.9179688 1.6998061 0 -0.26429713 0.022583133 -0.96417689 0.00059188681
2.7083578 1.9101562 1.6972806 0 -0.26696879 0.033013474 -0.96313953 0.0014680524
2.7293022 1.9101562 1.6903253 0 -0.29587638 0.023611767 -0.95493436 0.0012161018
2.7494683 1.9101562 1.6832153 0 -0.31475407 0.035962887 -0.94849169 0.0017072861
2.7617188 1.9179688 1.6813333 0 -0.31580052 0.048649739 -0.94757754 0.0016196552
1.7192011 1.9296875 1.6875 0 -0.9948954 -0.0018163359 -0.10089535 0.00069215486
2.6991234 1.9287236 1.6991879 0 -0.28201765 0.010328688 -0.95935363 0
2.7109375 1.9296875 1.6964856 0 -0.28410801 0.001122489 -0.95879167 0
2.7298684 1.9296875 1.690616 0 -0.29027689 0.0023257036 -0.95693994 0
2.7500286 1.9296875 1.6837026 0 -0.30022034 0.028819853 -0.95343441 0.0015457014
2.7617188 1.9257812 1.6818274 0 -0.30590913 0.032060329 -0.9515208 0.00090147788
1.7190627 1.9492188 1.6875 0 -0.99422073 -0.0017951651 -0.10734015 0.00076145161
2.6986918 1.9505503 1.6989552 0 -0.2878682 0.0095587652 -0.95762235 0.0004893156
2.7109375 1.9492188 1.6956373 0 -0.29251373 0.015669571 -0.95613295 0.00090935978
2.7280099 1.9492056 1.6903177 0 -0.28905696 0.0078385714 -0.95727986 0
2.7504086 1.9492188 1.6839054 0 -0.28581479 0.013103538 -0.95819533 0.0004253537
2.7617188 1.9492188 1.6807986 0 -0.29550475 0.015618603 -0.95521361 0
1.719028 1.96875 1.6875 0 -0.99458975 -0.0079488261 -0.10357629 0.00082672137
2.7084005 1.96875 1.6969544 0 -0.28659955 0.023411538 -0.95776433 0
2.7298751 1.96875 1.6906358 0 -0.30004415 0.026626945 -0.95355368 0
2.7515543 1.9677885 1.6837313 0 -0.28783479 0.011643231 -0.9576093 0
2.7617188 1.96875 1.6810445 0 -0.28431514 0.02026039 -0.95851684 0.00076366356
1.7173977 1.9898437 1.6881853 0 -0.99328649 -0.0064377766 -0.11550131 0.00078553666
2.7098382 1.9871144 1.6981072 0 -0.28746191 0.020818017 -0.95756584 8.7653265e-05
2.7303557 1.9881719 1.6911485 0 -0.29092237 0.027825767 -0.95634198 0.00042512783
2.7519875 1.9880865 1.6845143 0 -0.28856108 0.022684 -0.95719272 0.00020117014
2.7617188 1.9882812 1.6818147 0 -0.28390777 0.023982797 -0.95855165 0.00037937175
1.7189043 2.0101562 1.6867187 0 -0.99252689 -0.010734224 -0.12155279 0.00017255243
2.6992188 2.0195312 1.6997484 0 -0.28359845 0.018240592 -0.95876962 0.00052314316
2.709316 2.0103538 1.6986682 0 -0.28620303 0.012968768 -0.95808125 0
2.7304535 2.0108235 1.6914431 0 -0.28859186 0.011384121 -0.95738453 0.00034253063
2.7525337 2.0103924 1.684492 0 -0.29218614 0.014717619 -0.95624828 0
2.765625 2.0117188 1.6815711 0 -0.28893563 0.012489308 -0.95726705 0.00057276874
1.7186823 2.03125 1.6875 0 -0.99085128 -0.0036771554 -0.13490832 0.0001740486
2.7087939 2.0313554 1.6985896 0 -0.28908399 0.0033969143 -0.95729768 0.0014062943
2.7315722 2.03125 1.6923414 0 -0.29578242 0.014286636 -0.95514852 0.00054207962
2.7522848 2.03125 1.6851128 0 -0.29402342 0.0067611556 -0.95577437 0.00057026977
2.764323 2.029948 1.6814877 0 -0.2907117 0.0088508939 -0.95676976 0.0019109243
1.7184521 2.0492187 1.6867187 0 -0.99084741 -0.011311266 -0.13451214 0.00086311687
2.710815 2.0499454 1.6966149 0 -0.28142619 0.014806597 -0.9594686 0.0017788538
2.7314808 2.0507812 1.692531 0 -0.2860142 0.027019465 -0.95784444 0.001363199
2.7519553 2.0510182 1.6847893 0 -0.29125735 0.028138943 -0.95623076 0.0019637181
2.7617188 2.0507812 1.682196 0 -0.3043271 0.029817497 -0.95210081 0.0012544595
1.7189016 2.0703125 1.6835938 0 -0.99033558 -0.0084351189 -0.13843523 0.0004366099
2.7150178 2.072557 1.69883 0 -0.29426333 0.065465614 -0.95347959 0.0028769043
2.7323592 2.0713658 1.6924497 0 -0.2983194 0.066775449 -0.9521274 0.0031983322
2.7519131 2.0682907 1.6856642 0 -0.2949051 0.04686496 -0.95437652 0.0023668944
2.763504 2.0722656 1.6823487 0 -0.30502459 0.061249427 -0.95037282 0.00035464903
1.7170341 2.0882812 1.685955 0 -0.9903937 -0.0032585412 -0.13823771 0.00041800624
2.7148438 2.0820312 1.6940241 0 -0.30569255 0.08071015 -0.94870323 0.0025910123
2.7323809 2.0881076 1.6939435 0 -0.30142489 0.09946236 -0.94828808 0.0018935674
2.7499819 2.0899453 1.6896212 0 -0.2991074 0.10692232 -0.94821006 0.0016821836
2.7662044 2.0906518 1.6836563 0 -0.32497475 0.10115291 -0.9402976 0.001564065
1.7167248 2.1106768 1.6887884 0 -0.99199951 -0.0066578714 -0.12606594 0.001378883
2.7363281 2.1095033 1.6978995 0 -0.30723545 0.11206257 -0.94501239 0.0026210945
2.749892 2.109375 1.691731 0 -0.30099633 0.1228134 -0.94568396 0.0019773708
2.771697 2.1104727 1.6849815 0 -0.33437523 0.11021007 -0.93597376 0.00174208
1.718688 2.1269531 1.6894531 0 -0.98950368 -0.0069833607 -0.14433892 0.00015833465
2.7516136 2.1254299 1.693421 0 -0.30555171 0.099326581 -0.94698066 0.0025667709
2.7703476 2.1289062 1.6867847 0 -0.33588421 0.09052524 -0.93754303 0.0013569347
2.7871602 2.1342113 1.6823292 0 -0.33066785 0.086151548 -0.93980676 0.0016025417
1.7169634 2.1499503 1.6882813 0 -0.99214107 -0.0034657137 -0.12507619 0.0010082838
2.7539062 2.1445312 1.6949575 0 -0.33403102 0.086958401 -0.93854219 0.0012992457
2.7671022 2.1480803 1.6897858 0 -0.28409052 -0.018437123 -0.95862019 0.010984438
2.7874436 2.1476562 1.6834347 0 -0.32571715 0.092089273 -0.94097179 0.0016412622
1.7165259 2.1653645 1.6866518 0 -0.98992676 0.00040250152 -0.1415797 0.00036527216
2.7753906 2.1632102 1.6842991 0 -0.24014167 -0.15099305 -0.95892286 0.044606596
2.7885125 2.1679688 1.6836822 0 -0.21692681 -0.20378481 -0.95468032 0.042029634
2.8007812 2.1601562 1.6800946 0 -0.29199609 0.0033391779 -0.95641375 0.014709745
1.7169294 2.1910276 1.6882664 0 -0.99080515 0.0089410236 -0.13500051 0.0017343874
2.7938437 2.1875 1.6835938 0 -0.18612075 -0.32334831 -0.92779571 0.047490519
2.8013501 2.1907167 1.6843802 0 -0.15064695 -0.32205918 -0.9346568 0.050054852
1.7165045 2.212832 1.6873906 0 -0.9899385 0.01409896 -0.14079437 0.001910002
2.7084515 2.2148438 1.6962742 0 -0.38862279 -0.11381076 -0.91434097 0.026262794
2.7297368 2.2108755 1.688621 0 -0.40340433 -0.14705466 -0.90312779 0.021400576
2.7508311 2.2121391 1.6837355 0 -0.35378155 -0.11723766 -0.92795157 0.012754212
1.7178317 2.2295585 1.6878347 0 -0.99036676 0.010189411 -0.13809344 0.0022761573
2.698478 2.2313399 1.6985679 0 -0.33283731 -0.34475219 -0.87770456 0.046566479
2.7107704 2.2278149 1.6945324 0 -0.42458665 -0.16041598 -0.8910628 0.030048272
2.7282732 2.2304785 1.69039 0 -0.42057443 -0.19518094 -0.88601446 0.032433454
2.7475789 2.2290921 1.6829141 0 -0.36407971 -0.19672887 -0.9103536 0.020114908
1.7186923 2.251302 1.6888021 0 -0.99295318 0.0076184464 -0.1182619 0.0014634309
2.6367188 2.2594481 1.6992188 0 -0.30969137 -0.5025081 -0.80720311 0.030283688
2.649929 2.2551596 1.6985787 0 -0.28516817 -0.48387131 -0.82737392 0.046464577
2.6665435 2.2533271 1.6931056 0 -0.23875478 -0.53424293 -0.8109135 0.026333304
2.6920073 2.2520182 1.6907499 0 -0.27643692 -0.46979424 -0.838377 0.032019477
2.7096391 2.2493889 1.6908214 0 -0.27127907 -0.47533807 -0.8369357 0.03405498
2.72859 2.2474308 1.6877279 0 -0.33337045 -0.42088076 -0.84363711 0.028797477
2.7485759 2.2453148 1.6836189 0 -0.36841232 -0.30940181 -0.87666577 0.02957198
1.7172835 2.269583 1.6866649 0 -0.99284291 0.0028492343 -0.11939384 0.00219881
2.6340909 2.2695312 1.697613 0 -0.35039619 -0.33869338 -0.87321782 0.037915822
2.6510766 2.2702191 1.692665 0 -0.31405783 -0.32465494 -0.89216977 0.037181057
2.6679323 2.271853 1.6867218 0 -0.29258695 -0.28482831 -0.91283387 0.033887044
2.6824789 2.2679687 1.6823215 0 -0.23684797 -0.44313574 -0.86460036 0.032669343
1.7187408 2.2890625 1.6875 0 -0.99286562 -9.2610113e-05 -0.11923829 0.0014044868
2.6274626 2.2905564 1.6987232 0 -0.35116479 -0.067967035 -0.93384355 0.0049403035
2.6505492 2.2894306 1.6918799 0 -0.32261837 -0.038427006 -0.94574875 0.0016038844
2.6695156 2.2890625 1.6855386 0 -0.30039501 -0.081705965 -0.95030892 0.006126978
2.6835938 2.2851562 1.6818677 0 -0.29264599 -0.16482531 -0.94190818 0.0093175117
1.7172468 2.3085938 1.6884041 0 -0.9920615 -0.0010934398 -0.12574923 0.0017668915
2.6338356 2.3074777 1.6982591 0 -0.33584192 0.017126739 -0.94176269 0.0011719867
2.6492302 2.3081927 1.6925319 0 -0.32396665 0.02099405 -0.94583553 0.00029400722
2.6694391 2.3098621 1.6866006 0 -0.32452378 0.019421984 -0.94567811 0.0003199903
2.6835938 2.3125 1.6805093 0 -0.32703573 0.016471479 -0.94486845 0.0020694267
1.7183863 2.3320312 1.6875 0 -0.99388552 0.0065130596 -0.11022357 0.0016659329
2.6336558 2.3277428 1.6991836 0 -0.33301526 0.032335233 -0.9423669 0.00049972086
2.6500919 2.3320837 1.6937795 0 -0.32823589 0.03246453 -0.94403774 0.0011495594
2.6683254 2.3319683 1.6875118 0 -0.32936674 0.034747995 -0.94356245 0.00070376811
2.6872134 2.3339844 1.6818159 0 -0.33186203 0.039794281 -0.94248819 6.9316433e-05
1.5046346 2.3557987 1.6835938 0 -0.60773486 -0.77553076 0.17091034 0.011726572
1.7162861 2.3540025 1.6881787 0 -0.99001247 0.066808201 -0.12414439 0.0046830899
2.6351583 2.3498349 1.6986347 0 -0.29877758 -0.10810009 -0.94818062 0.046529345
2.6500213 2.3507812 1.6939167 0 -0.28651419 -0.22089118 -0.93226433 0.063396282
2.6675453 2.3510885 1.6887696 0 -0.2908414 -0.059920099 -0.95489317 0.02495794
2.6859872 2.3513668 1.683008 0 -0.34646171 -0.0046212473 -0.93805265 0.00421086
1.5000917 2.3632812 1.6835938 0 -0.60747367 -0.77568716 0.17112933 0.012022587
1.7193681 2.3691406 1.6855469 0 -0.95891666 0.22850759 -0.16811591 0.048929673
2.6355491 2.3710938 1.6988598 0 -0.45705232 -0.37016031 -0.80875492 0.13938695
2.6508055 2.3710938 1.6939456 0 -0.17231949 -0.30760801 -0.93577951 0.15073016
2.6680155 2.3718367 1.6888973 0 -0.28798375 -0.24475688 -0.92582905 0.089886241
2.6838739 2.3695352 1.683907 0 -0.28766242 -0.18079583 -0.94051218 0.043652046
0.81640625 2.3906662 1.6992188 0 -0.039786708 -0.99854481 -0.036404788 0.0013961146
0.83297193 2.3896716 1.689999 0 -0.033282731 -0.99876565 -0.036870006 0.00087517052
0.8515625 2.3899906 1.6914062 0 -0.034791194 -0.99890929 -0.031141786 0.0010290211
0.87109375 2.3888173 1.6914062 0 -0.033163134 -0.99866045 -0.039716873 0.0010522917
0.890625 2.3879337 1.6914062 0 -0.034642193 -0.99852943 -0.041699685 0.0012545201
0.91206694 2.3874271 1.6913649 0 -0.022485083 -0.99887222 -0.041817367 0.00045329102
0.92973369 2.3867531 1.6911619 0 -0.0080096638 -0.99907702 -0.042201664 0
0.94923514 2.3867064 1.691184 0 0.0036179291 -0.99932444 -0.036574621 0.00041991656
0.96918404 2.3869011 1.6900694 0 0.010626046 -0.99953455 -0.028596381 0.00065880065
0.98770422 2.3869767 1.6886576 0 0.022764506 -0.99940109 -0.026063113 7.8337915e-05
1.0097612 2.3874273 1.6931633 0 0.024595838 -0.99947107 -0.021276884 0
1.03125 2.3882461 1.6914062 0 0.014085664 -0.99957341 -0.025586231 0
1.0507812 2.3885133 1.6914062 0 -0.062421635 -0.99539292 -0.07277707 0.0037037183
1.0721705 2.3881762 1.6904297 0 -0.08460515 -0.99336672 -0.077874519 0.0038825187
1.0820312 2.3825736 1.6875 0 -0.089175753 -0.99158263 -0.093869656 0.0029453738
1.2363281 2.3935609 1.6933594 0 -0.017760323 -0.99962032 -0.021068048 0
1.2480507 2.3943167 1.6921622 0 -0.019685587 -0.99961483 -0.019558854 2.2641298e-05
1.2695312 2.3934355 1.6914062 0 -0.010613896 -0.99973506 -0.020424994 0.00050310494
1.2906154 2.3941348 1.6943493 0 -0.004441489 -0.99978817 -0.020097317 0.00015580526
1.3110162 2.3938136 1.6889472 0 0.0025612279 -0.99980783 -0.019437984 0
1.3320312 2.3937082 1.6914062 0 0.00098009885 -0.99973375 -0.023055585 0
1.3515625 2.3937109 1.6914062 0 0.0056890063 -0.99966598 -0.025210727 0
1.3710938 2.3937438 1.6914062 0 0.0061215255 -0.99970168 -0.023644919 0.0011986719
1.3887615 2.3942316 1.6902133 0 -0.00089098135 -0.99968928 -0.024911523 0
1.4101562 2.3937967 1.6914062 0 -0.028287254 -0.99928564 -0.025062423 7.1643342e-05
1.4296875 2.3935258 1.6914062 0 -0.072656676 -0.99676651 -0.034315731 0.00019220995
1.4492188 2.391253 1.6914062 0 -0.078596309 -0.99619114 -0.037760232 0.0015535556
1.4709798 2.3882613 1.6913826 0 -0.39584532 -0.91497356 0.078293651 0.030665947
1.4804688 2.3932092 1.6987437 0 -0.39322695 -0.91489798 0.091292188 0.029560311
1.7194451 2.390625 1.6914062 0 0.7216602 -0.67553937 0.15117249 0.095325157
1.7287885 2.3968546 1.6885056 0 0.30235302 -0.94237524 0.14321858 0.071429707
1.7492187 2.3993204 1.6898438 0 0.041703142 -0.99912965 -0.00085039996 0.0076231435
1.7695312 2.3994198 1.6914062 0 0.015378914 -0.99972439 -0.017737288 0.00070673542
1.7890625 2.3994992 1.6914062 0 0.0062203133 -0.99977911 -0.020072196 0.00078492751
1.8097098 2.3997047 1.6891741 0 0.014251931 -0.99973249 -0.018215628 0.0007620863
1.8242188 2.3998346 1.6914062 0 0.011492594 -0.99976271 -0.018503828 0.00081215519
1.8554688 2.3998837 1.6914062 0 0.010302989 -0.99971545 -0.021512138 0.00031085554
1.8632812 2.3998749 1.6914062 0 0.010289615 -0.99972123 -0.021251533 0.00092943961
1.8945312 2.3998156 1.6992188 0 0.010895535 -0.99972051 -0.020981135 0.00035536694
2.2148438 2.3999617 1.6835938 0 0.020943528 -0.9996534 -0.015951218 0.00071408099
2.3335938 2.399677 1.6914062 0 -0.02513282 -0.99944651 -0.021792859 0.0025842895
2.3502605 2.3994153 1.6940104 0 -0.00038702076 -0.99981147 -0.019413326 0.0015695114
2.376302 2.3996105 1.6888021 0 -0.0062531191 -0.99996501 -0.0055646142 0.0011986805
2.391927 2.3995302 1.6888021 0 -0.017142694 -0.99966967 -0.01914591 0
2.4101562 2.3992183 1.6923828 0 -0.020542506 -0.99954683 -0.022002902 0.00055848219
2.4296875 2.3989055 1.6914062 0 -0.018432496 -0.99969172 -0.016634528 0.0010519361
2.4492188 2.398627 1.6914062 0 -0.012791742 -0.99970794 -0.020505318 0
2.46875 2.3984439 1.6914062 0 -0.013419736 -0.99971271 -0.01985839 0
2.4882812 2.3983171 1.6914062 0 -0.013894166 -0.99940091 -0.031698275 0.00078072067
2.5117188 2.3980362 1.6914062 0 -0.019052479 -0.99869835 -0.047314398 0.00054212869
2.53125 2.3980253 1.6914062 0 -0.022758938 -0.99795043 -0.05980726 0.00084293558
2.5507812 2.3976085 1.6914062 0 -0.1113526 -0.96464205 -0.23888561 0.042098738
2.5703125 2.397393 1.6914062 0 -0.1283295 -0.9611448 -0.24440157 0.042640939
2.5898438 2.3973608 1.6914062 0 -0.21282332 -0.95405471 -0.21091688 0.052378863
2.6106677 2.3945885 1.6894504 0 -0.20678654 -0.97741044 -0.04368284 0.075351335
2.6299374 2.3866653 1.6874939 0 -0.031627443 -0.9756062 -0.21723792 0.18686344
2.6503356 2.3862143 1.6905782 0 -0.11461486 -0.5388869 -0.83454436 0.14698093
2.6677225 2.3908069 1.6885066 0 -0.23491269 -0.71399593 -0.65956485 0.11899628
2.6850827 2.3886719 1.6823499 0 -0.30271557 -0.55266422 -0.77648282 0.10556585
1.7226562 2.4010055 1.6992188 0 0.32138449 -0.92431271 0.20581067 0.064183027
1.7539062 2.4000714 1.6992188 0 0.024321336 -0.99970371 -0.0009676558 0.0065760561
1.8046875 2.4003658 1.6992188 0 0.013767473 -0.99970472 -0.020019369 0
1.8330078 2.4005094 1.6914062 0 0.0087303007 -0.99976426 -0.019882027 0
1.8507812 2.4003987 1.6914062 0 0.012932664 -0.99971879 -0.019878587 0.00029539963
1.8720703 2.4007101 1.6914062 0 0.00883028 -0.99972284 -0.021824485 0.00033752024
1.8898437 2.4011972 1.6898438 0 0.012700444 -0.99962389 -0.024305398 0.0013374228
1.9101562 2.4008067 1.6914062 0 0.010491809 -0.99963617 -0.024846707 0
1.9296875 2.4007509 1.6914062 0 0.018903891 -0.99958652 -0.021666825 0.00041948908
1.9492188 2.4014149 1.6914062 0 0.013700167 -0.99977517 -0.016180797 0
1.96875 2.4018865 1.6914062 0 0.0070002191 -0.99976748 -0.020396188 0
1.9882812 2.4017904 1.6914062 0 0.0013997303 -0.99984324 -0.017649088 0.00054230553
2.012429 2.4018619 1.6894977 0 -0.0029541543 -0.99977618 -0.020949835 0.00012247213
2.03125 2.4017813 1.6914062 0 -0.0047686044 -0.99975365 -0.021676624 0
2.0483806 2.4019115 1.6937579 0 -0.0057902653 -0.99972564 -0.022696208 0.00047820841
2.0703125 2.4013891 1.6914062 0 0.00044726621 -0.99972713 -0.023355968 0.00085845101
2.0898438 2.4012728 1.6914062 0 -0.007556193 -0.9996112 -0.026840152 0
2.1084192 2.4019823 1.6873332 0 -0.015065559 -0.9995358 -0.026481187 0
2.1289062 2.4007823 1.6914062 0 -0.010491617 -0.99972308 -0.021066044 0
2.1484375 2.4008021 1.6914062 0 -0.0088328915 -0.99982387 -0.016561165 0.00029346943
2.1679688 2.4008515 1.6914062 0 -0.0045006466 -0.99989998 -0.013409109 0
2.1914062 2.4007366 1.6914062 0 -0.01304297 -0.99987394 -0.0090528186 0.00038065918
2.2101562 2.4005189 1.6929687 0 0.0087210573 -0.9998945 -0.011612682 0.0016328117
2.2304688 2.4002619 1.6914062 0 0.028281171 -0.99935448 -0.022156002 0.00093359337
2.2500293 2.4023263 1.6919837 0 0.043460798 -0.99886566 -0.019455574 0.00059427571
2.2692566 2.4026737 1.6898702 0 0.025651431 -0.99952888 -0.01685139 0.0007244132
2.2883859 2.403055 1.692891 0 -0.028295936 -0.99937665 -0.021109765 0
2.3083644 2.4020708 1.691301 0 -0.045572296 -0.99889022 -0.011890965 0.00047265011
2.3300781 2.4003208 1.6914062 0 -0.041279051 -0.99900776 -0.016722683 0.0015781446
2.3528645 2.400286 1.6888021 0 -0.0038304192 -0.99987775 -0.015162498 0.0022570293
2.3684895 2.4005022 1.6927084 0 -0.0067720548 -0.99985152 -0.015844619 0
2.389323 2.400512 1.6940104 0 -0.014961565 -0.9996019 -0.023920238 0
2.4101562 2.4000444 1.6835938 0 -0.017057085 -0.99967247 -0.019078897 0
2.6679688 2.4011769 1.6835938 0 0.012830034 -0.92674941 -0.37546089 0.09862487
1.7148438 1.1523438 1.7194649 0 0.38977951 -0.095530279 -0.91593993 0.011704277
2.5351562 1.1523438 1.7172343 0 -0.30131528 0.274326 -0.91321105 0.0035638229
2.5546875 1.1523438 1.7164605 0 -0.28421018 0.28192618 -0.9163745 0.0033911057
2.5726485 1.1523757 1.7111021 0 -0.24816845 0.26237461 -0.93250847 0.00440495
2.5836751 1.1530908 1.7112174 0 -0.25215802 0.26913968 -0.92950535 0.0034726064
2.6132812 1.1594189 1.7070312 0 -0.26212382 0.17646877 -0.94876224 0.0065010255
1.7109663 1.1699437 1.7169626 0 0.67164087 -0.088838004 -0.73553127 0.085249275
2.5533855 1.1653646 1.7170283 0 -0.29044062 0.23462528 -0.9276827 0.005598994
2.5722539 1.1679335 1.7151351 0 -0.24818566 0.20913903 -0.94586718 0.0058060917
2.5910742 1.1691247 1.7086967 0 -0.25639039 0.1788777 -0.94987726 0.00495179
2.6106703 1.1674761 1.705798 0 -0.27627912 0.16631556 -0.94657749 0.0060373661
2.626302 1.1653646 1.7017902 0 -0.25265232 0.1279112 -0.95906496 0.0071811634
1.7096354 1.1966146 1.718532 0 0.25939798 -0.05314023 -0.96430743 0.0043810941
1.7226562 1.1992188 1.7195179 0 0.46483713 -0.054143962 -0.88373911 0.029020926
2.5926974 1.1906042 1.7161876 0 -0.29066834 0.11750604 -0.94958115 0.0067095249
2.6083429 1.1902902 1.7119099 0 -0.29658386 0.10022067 -0.94973361 0.0059358343
2.6263611 1.1913489 1.7058557 0 -0.24093167 0.093206622 -0.96605611 0.0067110341
2.6445312 1.1914062 1.70119 0 -0.24474742 0.052252144 -0.96817786 0.0064817369
2.6601562 1.1835938 1.7000848 0 -0.22225139 0.035399832 -0.97434652 0.0047658291
1.7122911 1.2099758 1.7157118 0 0.22066426 -0.038674135 -0.97458279 0.0081772786
1.7252604 1.2122396 1.7173424 0 0.35819703 -0.047485385 -0.93243766 0.026229838
2.5928245 1.2101133 1.715987 0 -0.30680838 0.035665087 -0.95110279 0.0020017545
2.6124346 1.2109375 1.7092032 0 -0.29820225 0.015771884 -0.95437241 0.0013370158
2.6277902 1.2122155 1.7042826 0 -0.28085169 0.011042289 -0.95968765 0.0031383317
1.7110856 1.2295802 1.7155159 0 0.17651926 -0.015170851 -0.98418027 0.0096582174
1.7304688 1.2304688 1.7173014 0 0.33564049 0.0052424441 -0.94197565 0.029900961
2.5939684 1.2297486 1.715395 0 -0.31079507 0.016661722 -0.95033091 0
2.6107821 1.2304688 1.7096088 0 -0.30582184 0.016813064 -0.9519403 4.5459063e-05
2.6268816 1.2304089 1.7054293 0 -0.30112875 0.0087483544 -0.95354342 0.00054625713
1.7122396 1.2467332 1.7169985 0 0.16567336 0.0094183162 -0.9861356 0.0081032654
1.7289063 1.2492187 1.7178383 0 0.32586825 0.022216769 -0.94515413 0.029530954
2.5950449 1.2487237 1.7160836 0 -0.30877289 0.047670286 -0.94994044 0.00073690177
2.6075697 1.2507813 1.7123585 0 -0.31110799 0.044824138 -0.94931698 7.6394654e-06
2.6280024 1.25 1.7058388 0 -0.30637449 0.037542101 -0.9511705 0
2.6445312 1.25 1.7007732 0 -0.29626119 0.038431097 -0.95433342 0.0013963159
1.7109903 1.2687693 1.7174671 0 0.30483285 0.0047767451 -0.95239383 0.028646182
1.7304688 1.2695312 1.7186265 0 0.3990261 -0.02105353 -0.9166978 0.040104318
2.5951931 1.2669271 1.716653 0 -0.31859192 0.063729167 -0.9457472 0.0010968343
2.6076005 1.2705078 1.7125146 0 -0.31158602 0.058375914 -0.94842309 0.00054417283
2.6276727 1.2695312 1.7058716 0 -0.3081032 0.054889847 -0.94976819 0.001551469
2.6445312 1.2695312 1.7005397 0 -0.30936599 0.04756508 -0.94975269 0
1.7109375 1.2890625 1.7185408 0 0.30071554 0.012069894 -0.95363754 0.025563402
1.7304688 1.2890625 1.7176217 0 0.39919937 -0.019470019 -0.91665733 0.036218066
2.5976562 1.2890625 1.7184799 0 -0.32364538 0.06786143 -0.94374174 0.0011297787
2.6086421 1.287953 1.7146722 0 -0.31835318 0.068399362 -0.94550133 0.0010785162
2.6285739 1.2896428 1.7068279 0 -0.31300703 0.055174984 -0.94814676 0.00069625257
2.6471355 1.2903646 1.7017198 0 -0.30452362 0.052755523 -0.95104277 0.0012215811
1.7122396 1.3138021 1.7182931 0 0.29826176 -0.010800378 -0.95442301 0.022394519
1.7304688 1.3085938 1.7178016 0 0.46659875 0.0073628062 -0.88443851 0.035327312
2.5976562 1.3046875 1.7192304 0 -0.32151479 0.062944159 -0.94481021 0.00020681962
2.6096201 1.3085938 1.7148737 0 -0.31941777 0.063443333 -0.9454878 0
2.6310337 1.3089567 1.7082565 0 -0.32553223 0.061664656 -0.94351798 0.00059061119
2.6476562 1.3085938 1.7021538 0 -0.30662146 0.050329328 -0.95049995 0
1.7148438 1.328125 1.7192879 0 0.29745561 0.033109292 -0.95416135 0.025398904
1.7304688 1.3320312 1.7181567 0 0.38317472 0.045090344 -0.92257464 0.038100924
2.5976562 1.3359375 1.7198398 0 -0.31676692 0.04756948 -0.94730979 0
2.6108856 1.3303593 1.7164572 0 -0.32311025 0.050934106 -0.94498962 0.00078779337
2.6306894 1.3321168 1.7093439 0 -0.3235628 0.051392917 -0.94480997 0
2.6484375 1.3320312 1.7028885 0 -0.32574385 0.044159744 -0.94442618 0.0012400231
2.6601562 1.3320312 1.7000406 0 -0.32081845 0.0438908 -0.94612324 0.00059261062
1.7148438 1.3515625 1.7195537 0 0.11706427 0.016281953 -0.99299091 0.0078192297
1.7304688 1.3515625 1.7185074 0 0.30590782 -0.0011002035 -0.95206046 0.030352646
2.609375 1.3515625 1.7179667 0 -0.31393388 0.031362772 -0.94892675 0.00053130428
2.6273375 1.3510443 1.7122427 0 -0.32850629 0.031940453 -0.9439615 0
2.6463866 1.3522173 1.7051587 0 -0.32766992 0.031347312 -0.94427204 0.0020267866
1.7148438 1.3710938 1.7197906 0 0.12774251 -0.0071852482 -0.99178129 0.0092817377
1.7330729 1.3658854 1.7192529 0 0.36939165 0.0035845493 -0.92926693 0.046761643
2.6129215 1.3701172 1.7167206 0 -0.31417236 0.025106827 -0.94903386 0.0013886621
2.6289062 1.3710938 1.7113268 0 -0.32266864 0.022197954 -0.94625169 0.00073758996
2.6467557 1.3707874 1.7061106 0 -0.32895291 0.023894947 -0.94404399 0
2.6601562 1.3710938 1.7007593 0 -0.32172954 0.027890986 -0.94642079 0.00015560089
1.7148438 1.390625 1.719094 0 0.14303358 -0.01149133 -0.98965114 0.0086292839
1.7278646 1.3919271 1.7191362 0 0.33242115 0.007783229 -0.94309896 0.030262081
2.6135714 1.3898437 1.7165697 0 -0.31537491 0.02295474 -0.94868946 0.0006334018
2.629138 1.391166 1.7112719 0 -0.31990403 0.028368164 -0.94702512 0.0020703878
2.6468794 1.3923526 1.7052922 0 -0.32151711 0.035922676 -0.94622213 0.00012930819
2.6601562 1.390625 1.7006061 0 -0.31717449 0.034857638 -0.94772637 0.00017056723
1.7135659 1.4082031 1.7182703 0 0.17685971 0.0037960312 -0.98422873 0.0070458306
1.7273438 1.4101562 1.7192156 0 0.32756394 0.0086771334 -0.94478911 0.026678953
2.6113281 1.4101562 1.7186215 0 -0.32073426 0.031622544 -0.94664121 0.00011483822
2.6262677 1.4111263 1.7135309 0 -0.32196733 0.030661209 -0.94625413 0
2.6468172 1.4112165 1.706356 0 -0.318176 0.040898446 -0.94714904 0
2.6621094 1.4121094 1.7016608 0 -0.3153851 0.043949094 -0.94794554 0.00058597844
1.7109375 1.4296875 1.7181417 0 0.33562833 0.040488727 -0.94112396 0.018847579
2.6132812 1.4296875 1.7184286 0 -0.31418371 0.040393662 -0.94850254 0
2.6287885 1.429253 1.7142122 0 -0.31395978 0.041164625 -0.94854349 0.00045902224
2.6490438 1.4296875 1.7075075 0 -0.31244722 0.052179653 -0.94850093 0.00031676571
2.6640625 1.4296875 1.7018114 0 -0.31486818 0.052484352 -0.94768316 0.0010705815
2.6132812 1.4453125 1.7183814 0 -0.30759591 0.037148781 -0.95079172 0
2.6282907 1.4496019 1.7138988 0 -0.30477032 0.043520529 -0.9514311 0.00068848056
2.6493652 1.4498941 1.7074467 0 -0.31006286 0.043009643 -0.94974267 0
2.6621094 1.4511719 1.7030171 0 -0.31588706 0.04381489 -0.94778454 0.00024932361
2.6132812 1.4648438 1.7197566 0 -0.3107287 0.039426904 -0.94968063 0
2.6293678 1.46875 1.7155946 0 -0.30434644 0.038580913 -0.95177978 0.00094889308
2.6499524 1.4679687 1.7090464 0 -0.30837464 0.038714461 -0.95047688 0
2.6640694 1.4697354 1.7050632 0 -0.31152239 0.043125272 -0.94925976 0.0002961334
2.6298616 1.4882812 1.7155591 0 -0.30115145 0.03998417 -0.95273763 0.00042724467
2.6506495 1.4886993 1.7083728 0 -0.30259189 0.049889825 -0.95181364 0.0013163184
2.6679688 1.4882812 1.7032964 0 -0.30009541 0.047811579 -0.95271027 0.00057642971
2.6309946 1.5105587 1.7157546 0 -0.30816627 0.064703606 -0.94912958 0
2.6485317 1.5107875 1.7101835 0 -0.3026399 0.056329452 -0.95143902 0.00034436618
2.666615 1.5122708 1.704831 0 -0.29975104 0.05957609 -0.95215547 0
2.6835938 1.5195312 1.7007785 0 -0.29316345 0.066997916 -0.95371193 0.00036716944
2.6341145 1.5299479 1.7165877 0 -0.32015789 0.036858108 -0.94664699 0.0022788313
2.6459026 1.5324699 1.713796 0 -0.30521539 0.032125685 -0.95174134 0.0012787448
2.6671684 1.53125 1.7063823 0 -0.29516488 0.044314932 -0.95441812 0.00030057851
2.6835938 1.53125 1.701457 0 -0.29744792 0.038649138 -0.95395547 0.00032432357
2.6335938 1.5523437 1.717828 0 -0.31724042 0.019565413 -0.9481433 0.0019762593
2.6470296 1.5512388 1.7141464 0 -0.30791041 0.0085785752 -0.95137668 0.0018303377
2.6681695 1.5503947 1.7070906 0 -0.27884084 0.020694813 -0.96011436 0.0029200711
2.6855469 1.5488281 1.7014326 0 -0.30235866 0.03119693 -0.95268357 0.001868943
2.6336927 1.5699298 1.7116971 0 -0.30970907 0.017508052 -0.95067012 0.0025852118
2.6475604 1.5711039 1.7134529 0 -0.29339334 0.022473678 -0.95572758 0.0029288393
2.6673908 1.5709506 1.7065108 0 -0.27941701 0.034610283 -0.95954591 0.0012888879
2.6835938 1.5703125 1.700572 0 -0.30303669 0.033311304 -0.95239651 0.00071976043
2.6367188 1.5898438 1.7161776 0 -0.29617742 0.031434283 -0.95461553 0.0021145395
2.6485434 1.5898438 1.7148222 0 -0.29246908 0.03821148 -0.95551121 0.0020242636
2.670366 1.5898522 1.708041 0 -0.27683985 0.053477198 -0.95942688 0.0016645063
2.6875 1.5898438 1.7023157 0 -0.3117151 0.039028876 -0.94937378 0
2.6367188 1.609375 1.7179053 0 -0.26902351 0.03536696 -0.962484 0.00068745296
2.6492522 1.6106062 1.7151667 0 -0.27452853 0.052798022 -0.96012843 0.00098615664
2.6704521 1.6094354 1.7085752 0 -0.29404944 0.030395182 -0.95530671 0.0015065208
2.6898437 1.6085937 1.7024412 0 -0.30157095 0.034859277 -0.95280629 0.0010173218
2.6367188 1.6289062 1.7183241 0 -0.28286874 0.010891245 -0.95909679 0.0007562195
2.6503577 1.6295338 1.7151774 0 -0.29236087 0.012088329 -0.95623171 0.0013636206
2.6704113 1.6292413 1.708882 0 -0.30340737 0.0044917264 -0.95285034 0
2.6891742 1.6277902 1.7027781 0 -0.3045153 0.0017251068 -0.95250589 0.0012436063
2.6367188 1.6523438 1.7196969 0 -0.29966953 -0.0066967718 -0.95401949 0.00086018787
2.6502373 1.6500089 1.7153463 0 -0.30267525 0.00079583802 -0.95309353 0.00087554246
2.6689043 1.6484375 1.7083437 0 -0.30548528 -0.010501766 -0.95213884 0
2.6875 1.6484375 1.7025115 0 -0.30608812 -0.0097618327 -0.95195317 0.0010600409
2.6367188 1.6679688 1.7181848 0 -0.30283582 -0.0088649923 -0.95300156 0.0011065553
2.6502764 1.6681095 1.7153004 0 -0.30731764 -0.01489869 -0.95149034 0.00075496425
2.6694634 1.6679688 1.7087535 0 -0.30304718 -0.021241436 -0.95273882 0.00062049966
2.6875 1.6679688 1.7028447 0 -0.3068417 -0.012117709 -0.9516834 0.001528576
2.6367188 1.6875 1.7175362 0 -0.30857617 -0.0079769883 -0.95116621 0.0005910896
2.6472204 1.6912467 1.7145528 0 -0.31100452 -0.01239544 -0.95032752 0
2.6685693 1.6914062 1.7077742 0 -0.30349138 -0.0080635129 -0.95280004 0.0012759663
2.6875 1.6914062 1.7019448 0 -0.30738446 -0.010813011 -0.95152402 0.00020121205
2.6367188 1.7109375 1.7168776 0 -0.29802555 -0.01399764 -0.9544552 0
2.6466427 1.7100171 1.7145882 0 -0.29714364 -0.0095922723 -0.95478463 0.0026154334
2.6683302 1.7101485 1.7077577 0 -0.30256152 0.0023327835 -0.95312697 0.0011118409
2.686198 1.7096354 1.7030355 0 -0.29878953 0.0093397386 -0.95427334 0
2.6367188 1.7304688 1.7188082 0 -0.27318436 -0.026033714 -0.96160942 0.0012519772
2.6483343 1.7304688 1.7148551 0 -0.28239509 -0.019197121 -0.95910615 0.0013157105
2.6690814 1.7304688 1.7080923 0 -0.2809819 0.0033697628 -0.95970714 0.00048241601
2.6875 1.7304688 1.7024537 0 -0.29929003 0.0059507499 -0.95414364 0.00041802617
2.6367188 1.7481514 1.715657 0 -0.26158702 -0.039413858 -0.96437484 0.00086378941
2.6477304 1.7491764 1.714504 0 -0.2614145 -0.039687712 -0.96441036 0.00067211798
2.6710758 1.7508295 1.7082325 0 -0.27268136 -0.018119102 -0.96193385 0.00041559173
2.6875 1.75 1.703651 0 -0.2914291 -0.0019098144 -0.95659059 0.00017148987
1.7148438 1.7695312 1.7033379 0 -0.99994576 -0.0094731003 0.0043342141 0.016819693
2.6367188 1.7687442 1.7144814 0 -0.24322549 -0.028964024 -0.96953726 0.00075903471
2.6474779 1.7676088 1.7134042 0 -0.25662306 -0.030232305 -0.96603858 0.0014726596
2.6683173 1.7697049 1.7074611 0 -0.25792721 -0.016710762 -0.96601981 0.00059436198
2.6891742 1.7684152 1.7021126 0 -0.28753939 -0.014258441 -0.95766264 5.9908674e-05
2.6367188 1.7901703 1.7143401 0 -0.28029656 0.043848533 -0.95891142 0.0042404295
2.6464524 1.7914981 1.7139598 0 -0.28359163 0.048333924 -0.95772624 0.004825878
2.6684854 1.7883102 1.707476 0 -0.25531164 -0.017112214 -0.96670741 0.00056865538
2.686198 1.7877604 1.7021405 0 -0.28228211 -0.013748933 -0.95923293 0
2.6367188 1.8007812 1.7129734 0 -0.30718997 0.048449248 -0.95041412 0.004018649
2.6471252 1.8060842 1.7135684 0 -0.29294074 0.06171057 -0.95413709 0.0049656634
2.6682103 1.8084327 1.707505 0 -0.29435107 0.051817697 -0.95429158 0.0041588624
2.6875 1.8085938 1.7017285 0 -0.28627765 0.0038636771 -0.95813894 0
2.6475015 1.8328291 1.7148411 0 -0.31918722 0.029577946 -0.9472301 0.0057141446
2.6696889 1.8337704 1.7077502 0 -0.33731773 -0.011312117 -0.94132292 0.0045706318
2.6875 1.8320312 1.7027267 0 -0.29969624 -0.013446543 -0.95393997 0
2.6490197 1.8477024 1.7149706 0 -0.33198684 -0.002238387 -0.94328129 0.0061369925
2.6694374 1.8495948 1.7077526 0 -0.34171432 -0.048125427 -0.93857086 0.0034636876
2.6875 1.8515625 1.7017057 0 -0.28091025 -0.025073119 -0.9594065 0.00092445884
1.7148438 1.8710938 1.7031411 0 -0.99922282 0.01761278 -0.035263151 0.014635523
2.6496811 1.8699121 1.7114986 0 -0.35218799 -0.020535488 -0.93570393 0.0040450734
2.6681454 1.87116 1.7072523 0 -0.33134323 -0.026000839 -0.94315195 0.0058094352
2.686198 1.8710938 1.7007262 0 -0.26904792 0.00067285507 -0.96312642 0.0016152797
2.6757812 1.8867188 1.7003322 0 -0.037172802 -0.070630096 -0.99680966 0.08763545
2.688802 1.8919271 1.7013383 0 -0.25693867 0.029239604 -0.96598524 0.00022610888
2.6755841 1.9153646 1.7050018 0 0.11547291 -0.003228789 -0.99330544 0.08564283
2.6904297 1.9091797 1.7023593 0 -0.2530525 0.034970421 -0.96682024 0.0021780096
2.6723771 1.9291139 1.7073262 0 0.11152966 0.081873938 -0.99038261 0.081960633
2.6875 1.9296875 1.7037363 0 -0.25682747 0.030155649 -0.96598667 0.0015432591
2.6727672 1.94789 1.7071798 0 -0.28175229 0.015689684 -0.95935893 0
2.6875 1.9492188 1.7033254 0 -0.28181037 0.013199554 -0.95937932 0.00029320177
2.6765068 1.9685918 1.7071377 0 -0.27458033 0.023593318 -0.96127468 0.00063189166
2.6902902 1.9700277 1.7039206 0 -0.28591108 0.024616981 -0.95793992 0.00040669896
2.6766996 1.9849752 1.7057232 0 -0.28117186 0.017687285 -0.95949447 0.00067431387
2.6895275 1.9863658 1.7041792 0 -0.28306592 0.022375289 -0.95883942 0.0010743528
2.7070312 1.9960938 1.700331 0 -0.2831465 0.024853583 -0.9587546 0.00051049853
2.6927083 2.0091145 1.7024174 0 -0.2761586 0.016586266 -0.96096897 0.0014390426
2.6966145 2.029948 1.7018775 0 -0.27370295 0.0021395946 -0.96181184 0.00039757174
2.7070312 2.0429688 1.7001208 0 -0.28651258 0.0067920019 -0.95805246 0.00098125404
2.6523438 2.2148545 1.7070246 0 -0.31089857 -0.39998478 -0.86217999 0.056652389
2.667969 2.2148685 1.7070155 0 -0.31294727 -0.24049263 -0.91881847 0.046213448
2.6882496 2.2148755 1.7068346 0 -0.32161516 -0.15531428 -0.93404555 0.039417177
2.6367188 2.2382812 1.7189952 0 -0.37489325 -0.47570199 -0.79571515 0.051436588
2.6532912 2.233073 1.7165178 0 -0.30069619 -0.40044564 -0.86557794 0.055026133
2.670773 2.2297761 1.7117448 0 -0.28396323 -0.24329123 -0.92745584 0.055425592
2.6906283 2.2302999 1.7086674 0 -0.30281156 -0.26543978 -0.91533971 0.044554673
2.7001691 2.2382812 1.7070312 0 -0.33280984 -0.34662369 -0.87697756 0.0437296
2.5963655 2.2548518 1.7149291 0 -0.28759524 -0.48314735 -0.82695687 0.02390922
2.6120353 2.2551057 1.7155796 0 -0.2715846 -0.50537491 -0.81904709 0.028734256
2.6281762 2.2536268 1.7093879 0 -0.28400642 -0.51403904 -0.80938506 0.029424226
2.649653 2.2490478 1.7113373 0 -0.31626171 -0.51906943 -0.79406887 0.044454448
2.6668303 2.2472703 1.7117343 0 -0.23378503 -0.46976763 -0.85127139 0.055003334
2.6879871 2.2447922 1.7074233 0 -0.26793745 -0.43125758 -0.8615256 0.04209977
2.7070312 2.2460938 1.7018741 0 -0.3222611 -0.46824107 -0.82273817 0.037465148
2.5720971 2.2710938 1.7171431 0 -0.33359009 -0.31004393 -0.89027548 0.038023178
2.5885794 2.2693818 1.7131613 0 -0.30333558 -0.37576705 -0.87566358 0.028365279
2.6120543 2.2705228 1.7079483 0 -0.34069067 -0.2831274 -0.89653146 0.035476979
2.625 2.2695312 1.7028173 0 -0.26472402 -0.40878472 -0.87339354 0.041844919
2.5732336 2.2871094 1.7174191 0 -0.29149002 -0.14975004 -0.94477957 0.012550764
2.5886519 2.290231 1.7135464 0 -0.30092302 -0.1138726 -0.94682539 0.013221549
2.6087 2.2890625 1.7065603 0 -0.30416223 -0.063370511 -0.95051014 0.0063750055
2.6210938 2.2851562 1.7022128 0 -0.33166048 -0.098875605 -0.93820304 0.0056872773
2.5664062 2.3085938 1.7190835 0 -0.29001182 0.0077329208 -0.95699179 0.0015443679
2.588774 2.3074126 1.7141421 0 -0.30260646 0.0053674746 -0.9531005 0
2.6104536 2.3085079 1.7068619 0 -0.32180876 0.030391214 -0.94631678 0.00017755873
2.6242187 2.3101563 1.7025236 0 -0.34324381 0.022785982 -0.93896991 7.3540621e-05
2.5742188 2.3359375 1.7164915 0 -0.2928142 0.016037451 -0.9560349 0.0010667425
2.5896649 2.3308775 1.7148494 0 -0.28716645 0.012824712 -0.95779485 0.0012765977
2.6112292 2.3325398 1.7081629 0 -0.29702452 0.014710585 -0.9547565 0.0010556816
2.626302 2.3346355 1.7029719 0 -0.32416072 0.024285471 -0.94569021 0.0012589432
2.5703125 2.3476562 1.7187446 0 -0.2914125 0.015714295 -0.9564684 0.0012595305
2.5868618 2.3523121 1.7135532 0 -0.29433608 0.0019265338 -0.95570004 0.0011549026
2.6120307 2.350184 1.7082263 0 -0.29409626 0.012203361 -0.95569789 0.00029706417
2.625 2.3515625 1.7047033 0 -0.323632 -0.095815584 -0.94131911 0.041012932
1.0742188 2.3798103 1.7148438 0 -0.15438515 -0.98264015 -0.10287592 0.0052983142
2.5742188 2.3710938 1.7189604 0 -0.36407804 -0.20207486 -0.90918255 0.04533888
2.5891261 2.3710938 1.7143198 0 -0.30306861 -0.23223506 -0.9242382 0.044366375
2.6114671 2.3710678 1.7076926 0 -0.30539119 -0.2263727 -0.92492789 0.05995094
2.625 2.3710938 1.7027664 0 -0.28535485 -0.35922593 -0.88855469 0.13464375
0.81380206 2.3890491 1.7096354 0 -0.04275028 -0.99806571 -0.045134746 0.00027377467
0.83203125 2.3885331 1.7109375 0 -0.050998349 -0.99755865 -0.047706846 0.0011321936
0.8515625 2.387955 1.7109375 0 -0.036493864 -0.99805129 -0.050614934 0.001631134
0.87220734 2.3868942 1.7120798 0 -0.038982037 -0.99783617 -0.052946717 0.0010872172
0.89152354 2.3867419 1.7104317 0 -0.030865151 -0.99800938 -0.054996196 0.00088354526
0.91107112 2.3863378 1.7088553 0 -0.019539041 -0.99874246 -0.046170142 0.00025371314
0.93083119 2.3864372 1.7087109 0 -0.003706628 -0.99915105 -0.041029718 0
0.95019531 2.3857622 1.7085483 0 0.007986743 -0.99936837 -0.034629434 0
0.96943563 2.3864729 1.7089785 0 0.021935284 -0.99935859 -0.028307116 0.00018148721
0.98876077 2.3866503 1.710724 0 0.029083515 -0.99940991 -0.018271446 0
1.0095005 2.3873072 1.7094104 0 0.026108915 -0.99954253 -0.015265243 0
1.03125 2.3883586 1.7109375 0 -0.056520123 -0.99781746 -0.034143124 0.0041199857
1.0507812 2.3884909 1.7109375 0 -0.088505864 -0.99414313 -0.062016599 0.0043956856
1.0689839 2.3865209 1.7090037 0 -0.099963866 -0.99189007 -0.078494124 0.0055146748
1.2354937 2.3943663 1.7100394 0 -0.018499 -0.99945182 -0.027456649 0
1.25 2.3933439 1.7109375 0 -0.017344434 -0.99952668 -0.025407013 0.0014827161
1.2695312 2.3929145 1.7109375 0 -0.010353397 -0.99955583 -0.027946254 0
1.2890625 2.3929014 1.7109375 0 -0.001763448 -0.9997108 -0.023984881 0.00010378255
1.3085938 2.392906 1.7109375 0 0.0026720276 -0.99974602 -0.022376558 0
1.3320312 2.3929784 1.7109375 0 -0.0011543313 -0.99967968 -0.025283849 0
1.3515625 2.3928344 1.7109375 0 0.0041933875 -0.99967498 -0.025146201 6.7603411e-05
1.3710938 2.3930099 1.7109375 0 0.0049158558 -0.99965543 -0.025785526 0
1.390625 2.3935926 1.7109375 0 0.0010448048 -0.99973345 -0.023064615 0.00090173422
1.4101562 2.3932519 1.7109375 0 -0.039678458 -0.99884421 -0.027127732 0.00065477006
1.4296875 2.3927443 1.7109375 0 -0.08249972 -0.99582922 -0.038959876 0.0018406023
1.4492188 2.3897731 1.7109375 0 -0.08420442 -0.99504828 -0.052805673 0.0025683148
1.47032 2.3873639 1.7101562 0 -0.27997518 -0.95716417 0.073829152 0.030736685
1.4813933 2.3865914 1.7091682 0 -0.32699513 -0.93854487 0.11048809 0.030563997
1.7148438 2.3992255 1.7109375 0 0.17215915 -0.97683698 0.1270857 0.04624575
1.734375 2.3987277 1.7109375 0 0.10707244 -0.97941792 0.171102 0.045061734
1.75 2.3987288 1.7109375 0 0.010910301 -0.99969292 0.022245741 0.0055434308
1.7695312 2.3991272 1.7109375 0 0.0025177237 -0.99976987 -0.021301843 0.00020047481
1.7890625 2.3990254 1.7109375 0 0.0067460402 -0.99973357 -0.022074375 0.0018612721
1.8085938 2.3991659 1.7109375 0 0.014176944 -0.99969292 -0.020324606 0.00015639314
1.8320312 2.3994563 1.7109375 0 0.0093192272 -0.99980885 -0.017191881 0.0018830467
1.8515625 2.3995156 1.7109375 0 0.010789243 -0.9997558 -0.019285213 0.00089447113
1.8710938 2.3998766 1.7109375 0 0.011048341 -0.99982989 -0.01477027 0.0018286088
1.8945312 2.399997 1.7148438 0 0.012906735 -0.99975437 -0.018016228 0.00051803893
1.9023438 2.3998439 1.7148438 0 0.014395194 -0.99977511 -0.015574453 0.00048981042
2.1210938 2.3999324 1.7148438 0 -0.012127844 -0.99966085 -0.023044486 0
2.1445312 2.3998799 1.7148438 0 -0.0063698292 -0.99970657 -0.023372237 0
2.1953125 2.3997269 1.7148438 0 -0.011881097 -0.99970055 -0.021392837 0
2.2122395 2.3998439 1.7122396 0 0.0014708445 -0.99980134 -0.019878522 0
2.2304688 2.3994296 1.7089844 0 0.023562485 -0.99940675 -0.025120348 0.00011733892
2.3320312 2.3994815 1.7109375 0 -0.033929229 -0.99917543 -0.022301141 0.0017291699
2.3515625 2.3996394 1.7109375 0 -0.0096037993 -0.99974698 -0.020342929 0.00084687152
2.3710938 2.3994529 1.7109375 0 -0.0097476477 -0.99970096 -0.022428175 0.00023431778
2.390625 2.3993344 1.7109375 0 -0.018480573 -0.99950236 -0.025563458 0
2.4101562 2.3984773 1.7109375 0 -0.01587045 -0.99957329 -0.024522813 0
2.4296875 2.3984241 1.7109375 0 -0.018250054 -0.99948674 -0.026327865 0
2.4492188 2.3981206 1.7109375 0 -0.020588266 -0.99875391 -0.045462545 0.0015021855
2.46875 2.397841 1.7109375 0 -0.023544207 -0.99775434 -0.062704876 0.0018528805
2.4882812 2.3974783 1.7109375 0 -0.11499215 -0.9619047 -0.24802449 0.039145306
2.5117188 2.3972514 1.7109375 0 -0.096853003 -0.9495796 -0.29819131 0.039034497
2.53125 2.397032 1.7109375 0 -0.081595458 -0.91055363 -0.40525839 0.046095178
2.5507812 2.3964424 1.7109375 0 -0.15748361 -0.89624 -0.41467193 0.051898435
2.5716145 2.3943024 1.713544 0 -0.21789876 -0.72314751 -0.65542185 0.094703875
2.589016 2.3915889 1.7127514 0 -0.24760355 -0.76834828 -0.5901978 0.07556542
2.6106946 2.3917766 1.7081075 0 -0.30221331 -0.66274548 -0.68515366 0.10037311
2.6269531 2.3886719 1.7035615 0 -0.3652913 -0.59963161 -0.71204215 0.12302697
2.6445312 2.3867188 1.7001742 0 -0.28522414 -0.43011048 -0.85653496 0.16298005
1.7226562 2.4004068 1.7109375 0 0.16844961 -0.97751713 0.12682682 0.046443786
1.8710938 2.4002681 1.7109375 0 0.011048341 -0.99982989 -0.01477027 0.0018286088
1.8893229 2.4005358 1.7096354 0 0.011839676 -0.99975514 -0.01869362 0
1.9117187 2.4005313 1.7101562 0 0.014134894 -0.99977934 -0.015541718 0
1.9296875 2.4008181 1.7109375 0 0.014696352 -0.99978524 -0.014614928 0
1.9492188 2.4010298 1.7109375 0 0.012972119 -0.9997673 -0.01723271 0.00020621844
1.96875 2.4015386 1.7109375 0 0.0061431988 -0.99977326 -0.020391092 0.00093910651
1.9882812 2.4010375 1.7109375 0 -0.00015750878 -0.99973536 -0.023004156 0
2.0117188 2.4012287 1.7109375 0 0.00051294779 -0.99965233 -0.026361337 0.00077440368
2.03125 2.4012325 1.7109375 0 -0.003243108 -0.99975032 -0.022109093 0.00014944047
2.0507812 2.4008458 1.7109375 0 -0.0067214761 -0.99970132 -0.023496706 0.00052926864
2.0703125 2.4010642 1.7109375 0 -0.0064564841 -0.99969274 -0.023932301 0.00012528923
2.0898438 2.4007101 1.7109375 0 -0.002993315 -0.99959451 -0.028316988 8.3500367e-05
2.109375 2.4013641 1.7109375 0 -0.0094403485 -0.99956703 -0.027868858 6.1622348e-05
2.1304688 2.400703 1.7101562 0 -0.0073603801 -0.99966812 -0.024687562 0
2.1497395 2.4006889 1.7096354 0 -0.002676832 -0.99982518 -0.018504187 0.00038216476
2.1679688 2.4005339 1.7109375 0 -0.0066980855 -0.99977756 -0.020000672 0
2.1894531 2.4002421 1.7089844 0 -0.010636 -0.99976599 -0.018834528 0.00037912111
2.2070312 2.4000463 1.7070312 0 -0.011594993 -0.99982971 -0.014351316 0.0011675737
2.2304688 2.4001851 1.7148438 0 0.02445865 -0.99933439 -0.02706624 0.0020266513
2.2507813 2.4015996 1.7095556 0 0.039205831 -0.9987365 -0.031437341 0.0026090895
2.2697749 2.4024134 1.7111033 0 0.032235131 -0.99922895 -0.022414459 0.00082053756
2.2896698 2.4024789 1.7113509 0 -0.021659907 -0.99963331 -0.016250875 7.370564e-05
2.3081493 2.402025 1.7099133 0 -0.04825842 -0.99874669 -0.013270242 0.00080593891
1.7159128 1.1315104 1.7216669 0 0.69725913 -0.049476109 -0.71510965 0.037308473
1.7295108 1.1310525 1.7273846 0 0.72190577 -0.082876883 -0.68701047 0.04929832
1.7485533 1.1302097 1.7352698 0 0.73124534 -0.11035363 -0.67312884 0.045350533
2.4796529 1.1367188 1.7382812 0 -0.36503696 0.16597724 -0.91607839 0.0019680776
2.4849184 1.1367829 1.7381773 0 -0.38499966 0.17697018 -0.90579075 0.0028820713
1.7098175 1.1445032 1.7228655 0 0.63356936 -0.095116399 -0.76781684 0.04194602
1.7290859 1.1484375 1.7238609 0 0.6343379 -0.094310388 -0.76728153 0.041879736
1.7490115 1.1488938 1.7324538 0 0.73130798 -0.11003976 -0.67311209 0.045386042
2.4924147 1.1484861 1.7373171 0 -0.34947971 0.20273383 -0.91474748 0.0029831883
2.5092714 1.149 1.73191 0 -0.36805317 0.23477471 -0.89967644 0.0049829674
2.5250108 1.1508367 1.7257618 0 -0.34574923 0.27183327 -0.89808917 0.0035237051
2.5429602 1.1528587 1.7230362 0 -0.30441347 0.26940253 -0.91364914 0.0021562048
1.7166317 1.1757812 1.721751 0 0.42015651 -0.055650145 -0.90574372 0.016548881
1.7288833 1.1672236 1.723587 0 0.43094844 -0.039469112 -0.90151298 0.015349662
1.7488196 1.1685812 1.731246 0 -0.75587243 0.05140416 0.6526978 0.055656001
2.4977822 1.1640625 1.7389572 0 -0.36368141 0.22455002 -0.90405363 0.0044868379
2.5114162 1.1672581 1.7359955 0 -0.3444654 0.22721148 -0.91088891 0.0043827393
2.5309823 1.1690769 1.7273736 0 -0.33357641 0.21072657 -0.9188695 0.0043114745
2.5476503 1.1733499 1.7229415 0 -0.29033348 0.21708956 -0.93197566 0.005209703
1.713835 1.1874753 1.7226439 0 0.40473825 -0.05678143 -0.91266799 0.020049196
1.7303149 1.191546 1.7240162 0 0.49062356 -0.068172231 -0.8687008 0.024327558
1.7503124 1.1907307 1.731963 0 -0.74196774 0.073897518 0.6663506 0.071666852
2.5195312 1.1826446 1.7387872 0 -0.3333033 0.1875225 -0.9239828 0.0046016881
2.5290451 1.1914062 1.7368506 0 -0.34112278 0.1411045 -0.92936802 0.0035416002
2.5490673 1.1906866 1.7296395 0 -0.30402419 0.1750377 -0.93644595 0.0062456429
2.5719802 1.1905295 1.7232929 0 -0.2863197 0.13892354 -0.94800913 0.006312679
2.5820312 1.1914062 1.7209679 0 -0.26490447 0.12985593 -0.95549101 0.0055369628
1.7357031 1.2073392 1.7219057 0 0.51205695 -0.041970436 -0.85792553 0.035006858
1.7511097 1.2116946 1.7291946 0 -0.77528292 0.080475427 0.62646633 0.056452088
2.5195312 1.2109375 1.7388251 0 -0.30948639 0.072738916 -0.94811779 0.0017243843
2.5281618 1.2109375 1.736321 0 -0.31258845 0.078476496 -0.94664145 0.0020422612
2.5501249 1.2109375 1.7301041 0 -0.30087557 0.041457433 -0.95276183 0.0015527367
2.5698731 1.2109375 1.7224289 0 -0.28555498 0.056119803 -0.95671785 0.002834277
1.7070312 1.2304688 1.7200619 0 0.17771329 -0.015146666 -0.98396575 0.0095602972
1.7516971 1.2304688 1.7280093 0 0.6636917 -0.017891666 -0.74779224 0.059938449
2.5195312 1.2265625 1.7395095 0 -0.30389786 0.032022011 -0.95216632 0
2.5288091 1.2304688 1.7367119 0 -0.30858469 0.029847626 -0.95072848 0
2.5508237 1.2296611 1.730159 0 -0.30573589 0.026311934 -0.95175272 0.0017339257
2.5704978 1.2304688 1.7229753 0 -0.30763564 0.018988421 -0.95131469 0.0010838824
2.5820312 1.234375 1.7203864 0 -0.31335843 0.020381702 -0.94941622 0
1.7070312 1.2521849 1.7226213 0 0.16461979 0.019155482 -0.98617101 0.0074737519
1.7382812 1.2539062 1.7200358 0 0.45735314 -0.025200138 -0.888928 0.049605358
1.750322 1.2504529 1.7272873 0 0.62697452 0.048961021 -0.77749968 0.073535107
2.5298197 1.2497728 1.7377541 0 -0.31196463 0.053766161 -0.94857126 0
2.5507827 1.2505118 1.7306505 0 -0.30979714 0.054075915 -0.94926369 0.00054550881
2.5718944 1.2503188 1.7234764 0 -0.31926262 0.050883688 -0.94629925 0.00039138502
