# .PCD v0.7 - Point Cloud Data file format
VERSION 0.7
FIELDS x y z rgb normal_x normal_y normal_z curvature
SIZE 4 4 4 4 4 4 4 4
TYPE F F F U F F F F
COUNT 1 1 1 1 1 1 1 1
WIDTH 556
HEIGHT 1
VIEWPOINT 0 0 0 1 0 0 0
POINTS 556
DATA ascii
4.2060142 0.29464066 1.7321197 255 -0.007724307 -0.0071340986 -0.99994475 0.0010249338
6.5834599 -7.9414692 1.5639869 255 -0.88263041 0.077610724 -0.46353966 0.069515273
6.5845084 -7.8218493 1.5728604 255 -0.79640472 -0.036997378 -0.60358441 0.08934918
6.5871148 -7.7153354 1.591439 255 -0.85362005 -0.035625368 -0.51961333 0.10475592
6.4723983 -7.612009 1.6204305 255 -0.23144536 0.028317276 -0.97243375 0.047352239
6.4908171 -7.5278983 1.6201216 255 -0.20671783 0.089109376 -0.97433239 0.038112085
6.4143825 -7.3430037 1.617327 255 0.012526893 -0.0056465962 -0.99990553 3.910435e-05
6.4398808 -7.2707267 1.6195223 255 0.010046996 -0.010212306 -0.99989736 7.7225173e-05
6.3454008 -7.1763301 1.6168356 255 0.006885922 -0.012928619 -0.99989271 6.2374413e-05
6.3591938 -7.0787029 1.6133852 255 0.0074445652 -0.063787133 -0.99793559 0.0098439949
6.3150101 -6.980341 1.6121616 255 0.0086256703 -0.13663118 -0.99058372 0.033040751
6.2872453 -6.9074183 1.6099801 255 -0.01018563 -0.12459406 -0.99215496 0.10088465
6.2487283 -6.780128 1.6077121 255 -0.1855748 -0.068998575 -0.98020339 0.15920225
6.2542658 -6.674499 1.6066833 255 -0.44492024 -0.11195234 -0.88853568 0.18703151
6.1781735 -6.6130872 1.6030943 255 -0.2369283 -0.045001186 -0.97048235 0.11665923
6.1835356 -6.5114861 1.6025748 255 -0.18102729 -0.067697309 -0.98114425 0.094704978
6.1274142 -6.3803916 1.6039473 255 -0.33398941 -0.21526106 -0.91766083 0.10711588
5.5375166 -4.3885479 1.6595956 255 0.013497221 0.98263103 -0.18483292 0.028547376
5.083106 -2.93543 1.7445667 255 0.00094914855 -0.013501334 -0.99990833 0.00023949162
5.0593905 -2.8676419 1.7451838 255 -0.0075737871 -0.0072502112 -0.9999451 0.00036512033
5.0435486 -2.7633483 1.7448845 255 -0.0061368444 -0.0060745231 -0.99996269 0.00030994331
5.0121975 -2.6649535 1.7456876 255 -0.00099375029 -0.0022928254 -0.99999684 4.9667462e-05
4.9793644 -2.5755138 1.745311 255 -0.00078465539 0.00093333342 -0.99999917 9.6914855e-06
4.9571376 -2.4797828 1.7457343 255 -0.0015411514 -0.00034255919 -0.99999875 2.4731846e-05
4.9272728 -2.3820624 1.7465031 255 -0.00049928325 -0.00010803449 -0.99999994 1.2547152e-06
4.8962588 -2.2815773 1.7445787 255 0.002357037 -0.010036393 -0.99994677 3.9625113e-05
4.8659372 -2.1920602 1.7463665 255 0.0041033537 -0.016445391 -0.99985635 4.6863912e-05
4.8403397 -2.0910399 1.7427838 255 0.0094788782 -0.015918817 -0.99982828 9.9794801e-05
4.8170042 -2.0028641 1.7415022 255 0.016229309 -0.012193548 -0.99979389 0.00017855834
4.77879 -1.9029741 1.7402006 255 0.023176793 -0.0079439897 -0.99969971 0.00016090131
4.7553711 -1.810295 1.7401738 255 0.032134183 -0.010506954 -0.99942821 0.00014970399
4.7260756 -1.7163484 1.736066 255 0.037529837 -0.0093094576 -0.99925196 0.00011248974
4.6983929 -1.617377 1.7335554 255 0.039211042 -0.0050968835 -0.99921781 5.3070919e-05
4.6675911 -1.5214603 1.7326621 255 0.037267007 0.001372643 -0.99930423 2.233389e-05
4.639575 -1.4309511 1.7316775 255 0.035088651 0.0034193106 -0.99937809 3.9755701e-05
4.6118517 -1.3350973 1.7304062 255 0.030460143 0.008861715 -0.99949658 6.1702725e-05
4.5817857 -1.2336859 1.7310152 255 0.020312015 0.014013899 -0.9996953 5.8230933e-05
4.5545778 -1.136647 1.7329248 255 0.01409494 0.0063705477 -0.99988031 0.00010652121
4.5244546 -1.0458436 1.7341172 255 0.0096396143 -0.0036041362 -0.99994701 0.00013824453
4.4934473 -0.94794214 1.7303293 255 0.0058412687 -0.014872431 -0.99987227 8.7149667e-05
4.4638076 -0.85143596 1.7282907 255 0.00087061478 -0.017978733 -0.99983799 2.2384065e-05
4.434864 -0.75623989 1.7274275 255 -0.0055935229 -0.015409651 -0.99986559 8.0402249e-05
4.4063816 -0.65845323 1.7259135 255 -0.013030116 -0.0081558237 -0.99988192 5.7199937e-05
4.3797092 -0.56134766 1.7253259 255 -0.015999308 -0.0062816804 -0.9998523 4.9852151e-05
4.350266 -0.46857372 1.7273473 255 -0.016434491 -0.0037572202 -0.9998579 1.5373407e-05
4.3199182 -0.37081897 1.7261388 255 -0.01212037 -0.0052507417 -0.9999128 4.0804654e-05
4.29106 -0.27667481 1.7270293 255 -0.0053394502 -0.0068409564 -0.99996239 2.8829105e-05
4.2633853 -0.1801181 1.7265974 255 0.0010008587 -0.0068217907 -0.99997622 0.00012898457
4.2360969 -0.084535547 1.7263784 255 -0.00082319399 -0.00284225 -0.99999565 0.00023056639
4.206522 0.0066936645 1.7261032 255 -0.0032043189 0.0082329437 -0.9999609 0.00025914219
4.1823087 0.090250932 1.7270136 255 0.0056673265 0.012680192 -0.9999035 0.00033160971
4.1762466 0.21534286 1.7295419 255 0.012058736 0.017362995 -0.99977642 0.00067603064
4.1476073 0.29665506 1.7323953 255 0.0013949506 0.0032868418 -0.99999356 0.0010119372
4.0956402 0.36210185 1.7331657 255 0.00973335 -0.017204801 -0.99980456 0.00083819305
6.5758872 -8.3495779 1.549921 255 -0.96851379 -0.020469768 -0.24794301 0.053523961
6.5772696 -8.2429113 1.5565289 255 -0.91824788 -0.028043745 -0.39491469 0.073884279
6.5785041 -8.155324 1.5739362 255 -0.9368006 -0.040419959 -0.34740531 0.064564422
6.5802712 -8.0589991 1.5531602 255 -0.88753021 0.024630265 -0.46001324 0.072963029
6.4358454 -7.6550403 1.6192743 255 -0.2123733 0.0059797261 -0.97716874 0.048162863
6.3739343 -7.6377463 1.6192726 255 -0.027820457 -0.011818546 -0.99954307 0.0024260471
6.3577199 -7.460515 1.6154685 255 0.013745776 -0.0046584881 -0.99989462 3.7806145e-05
6.3460813 -7.432981 1.6163746 255 0.013709276 -0.0044484339 -0.99989611 4.4979806e-05
6.3016157 -7.2778187 1.6156439 255 0.0058771567 -0.0048580263 -0.99997091 5.1997162e-05
6.2332172 -7.108614 1.6140877 255 0.0025378652 -0.017388893 -0.99984556 7.3481133e-05
6.2587786 -7.0084372 1.6104555 255 -0.0573298 -0.14241242 -0.98814493 0.028772194
6.1718483 -6.9167466 1.6079273 255 -0.10598708 -0.11083401 -0.98817062 0.030741278
6.1661172 -6.8088131 1.6073534 255 -0.2143219 -0.04499929 -0.9757244 0.091383122
6.1200819 -6.7095475 1.6053865 255 -0.2979801 -0.060350277 -0.95265883 0.095481277
6.1047301 -6.6315455 1.6082929 255 -0.205098 -0.029873213 -0.97828412 0.061010066
6.073524 -6.519134 1.6044055 255 -0.18935212 0.016748071 -0.98176527 0.070111305
6.036149 -6.438643 1.6058334 255 -0.20063321 -0.091787763 -0.97535539 0.071316689
6.0310192 -6.377944 1.6076509 255 -0.23499739 -0.094237886 -0.96741468 0.070662819
5.4302855 -4.3851967 1.6568482 255 0.027012674 0.94479299 -0.32642305 0.078257836
5.3893509 -4.3825731 1.6932193 255 -0.027790582 0.91253608 -0.40795413 0.077959247
5.0161128 -2.9493189 1.7456931 255 -0.0077781272 -0.0021677073 -0.9999674 0.00032123103
4.9772191 -2.8825848 1.7459453 255 -0.01090859 -0.0067947125 -0.99991739 0.00030618964
4.945487 -2.7959101 1.7464899 255 -0.013089363 -0.0070297015 -0.99988967 0.00030446317
4.9223375 -2.6988902 1.7464459 255 -0.012200662 -0.0081639448 -0.99989223 0.0001885446
4.8859367 -2.6028988 1.7462443 255 -0.0048097274 -0.00074321043 -0.99998814 1.4449004e-05
4.8620558 -2.5063806 1.7465285 255 -0.0033057299 -0.0023627332 -0.99999171 1.7265518e-05
4.8367696 -2.4122269 1.7469909 255 0.00027625632 -0.0018007904 -0.99999833 4.2713589e-05
4.8044086 -2.3169761 1.7458436 255 0.0033860621 -0.010100386 -0.9999432 1.7706927e-05
4.77175 -2.2298889 1.7463208 255 0.0098198289 -0.017992456 -0.99978983 8.6799344e-05
4.7404733 -2.1240642 1.7419237 255 0.016685188 -0.023246972 -0.99959034 0.00010862565
4.718708 -2.0224435 1.7398475 255 0.02713226 -0.020400837 -0.9994235 0.00013488383
4.6814566 -1.9331895 1.7361249 255 0.033979718 -0.016931182 -0.99927896 6.9966234e-05
4.6629152 -1.8365352 1.7335665 255 0.040627819 -0.011520946 -0.99910766 4.554692e-05
4.6238904 -1.734534 1.7295589 255 0.039378211 -0.0077913464 -0.99919385 9.0669608e-05
4.6020679 -1.6444613 1.7297316 255 0.035289619 -0.0040393244 -0.99936885 8.5960288e-05
4.5723486 -1.5519494 1.7271473 255 0.029900687 -0.00053256465 -0.99955255 0.00011829331
4.5426497 -1.4540676 1.7263821 255 0.022647623 0.0057590348 -0.99972683 0.00012772443
4.5134053 -1.3586726 1.7269279 255 0.015348529 0.0113959 -0.99981713 0.00012519477
4.487411 -1.2623276 1.7279102 255 0.0078919139 0.018715736 -0.99979365 7.7359568e-05
4.4537749 -1.1639264 1.7306827 255 0.0041196323 0.013791485 -0.99989635 0.00012076066
4.4297948 -1.0742109 1.733585 255 0.0020238378 0.0007174054 -0.99999768 0.00014643412
4.4000506 -0.97977406 1.7317597 255 -0.0022155053 -0.010077467 -0.99994677 7.3952287e-05
4.3671947 -0.88026947 1.7284616 255 -0.0099832164 -0.014186834 -0.9998495 2.3266748e-05
4.3402061 -0.78335798 1.729383 255 -0.013883524 -0.014566231 -0.99979758 1.8542234e-05
4.3103337 -0.68595624 1.7277913 255 -0.016029254 -0.0081766499 -0.99983811 7.8223202e-06
4.2823386 -0.59027743 1.7287717 255 -0.011922353 -0.006443175 -0.99990815 4.9842958e-05
4.2549887 -0.49640378 1.7296309 255 -0.0080245221 -0.0059431768 -0.99995023 0.00011414585
4.2256365 -0.40249276 1.7291491 255 0.00014176482 -0.0093063898 -0.99995667 0.00012759167
4.195087 -0.30580917 1.7277149 255 0.0091410642 -0.010667103 -0.99990124 0.00014613802
4.1669545 -0.20720299 1.7255886 255 0.01806115 -0.006337604 -0.99981672 0.0001920167
4.1405282 -0.11378387 1.7254246 255 0.015467142 -0.0012839327 -0.99987942 0.00024473897
4.1130538 -0.030598519 1.7252398 255 0.015057883 0.00062839955 -0.99988633 0.00018513935
4.1119375 0.062502049 1.7266874 255 0.010496998 0.0064485529 -0.999924 0.00028786872
4.0403466 0.36369607 1.7339838 255 0.015660163 -0.012943179 -0.99979347 0.00078219222
6.5594153 -8.5668678 1.5504693 255 -0.98670775 0.10418023 -0.1243497 0.060628548
6.5758462 -8.4414616 1.5443727 255 -0.96959281 0.092402346 -0.22641526 0.055296034
6.3410468 -7.7424221 1.6190102 255 -0.085227869 -0.025945365 -0.99602354 0.010483837
6.3015437 -7.6311545 1.6167339 255 0.014022168 -0.010457382 -0.99984699 8.4579833e-06
6.2679257 -7.5535822 1.6168216 255 0.007342279 -0.0062010074 -0.99995381 3.589506e-05
6.2325196 -7.4530439 1.615806 255 0.0073614074 -0.0023926485 -0.99997002 5.1974581e-05
6.2144971 -7.3245888 1.6150999 255 0.0023969335 -0.00056699524 -0.9999969 2.6784463e-05
6.1663671 -7.241766 1.6165112 255 -0.00044006945 -0.006355423 -0.99997967 8.5230502e-05
6.1494346 -7.1096702 1.6158775 255 -0.0041807732 -0.014736089 -0.9998827 7.9137804e-05
6.0971327 -6.9339461 1.6100674 255 -0.070003718 -0.070038952 -0.99508476 0.024278032
6.0360122 -6.7794123 1.6090639 255 -0.11987521 -0.0092100753 -0.99274594 0.02261197
6.0107503 -6.6368451 1.6075416 255 -0.022188427 -0.0061346954 -0.99973506 7.9402846e-05
5.9572358 -6.504458 1.6095666 255 -0.13779978 -0.0059920959 -0.9904415 0.021985179
5.9319248 -6.3999796 1.6153376 255 -0.26850858 -0.0066307769 -0.96325183 0.054091532
5.320785 -4.3851972 1.6617782 255 0.0068660355 0.97367126 -0.22765696 0.05167051
4.868834 -2.9834554 1.7465889 255 -0.0071275709 0.0068146777 -0.9999513 0.00048902881
4.881042 -2.9107521 1.7465329 255 -0.011393806 -0.0015563305 -0.9999339 0.00034005143
4.8593249 -2.8230577 1.7476152 255 -0.013190292 -0.0078211939 -0.99988246 0.00035452211
4.8277459 -2.7271559 1.7473021 255 -0.0075737927 -0.009213211 -0.99992889 0.00023661002
4.7950859 -2.6356559 1.7478262 255 -0.0024307903 -0.002685288 -0.9999935 2.5746434e-05
4.7639594 -2.543123 1.7471199 255 0.0011688801 -0.0016246762 -0.99999797 4.3456283e-05
4.7373257 -2.4448249 1.7471942 255 0.0028045557 -0.0025849766 -0.99999267 0
4.7107906 -2.3481069 1.7469907 255 0.0029788886 -0.0086451378 -0.99995816 6.1328516e-05
4.6804118 -2.2456183 1.7446181 255 0.012135101 -0.023674322 -0.99964601 0.00010741569
4.6476851 -2.1522341 1.7407368 255 0.019802976 -0.031000858 -0.99932313 7.9799538e-05
4.6185942 -2.0574269 1.7367754 255 0.028409913 -0.030293027 -0.99913704 5.3424093e-05
4.5942931 -1.9598513 1.73181 255 0.029563701 -0.021132706 -0.99933934 0.00011559641
4.5618515 -1.8671726 1.7286479 255 0.026268203 -0.01487569 -0.99954408 0.0001733938
4.5308437 -1.7714453 1.7276344 255 0.013812049 -0.011541707 -0.99983793 0.00017304382
4.5066719 -1.6759582 1.7263364 255 0.014465578 -0.0068972451 -0.99987155 0.00019587784
4.4757767 -1.5777746 1.7250179 255 -0.0014187976 -0.001647228 -0.99999756 0.00022369499
4.4474549 -1.481638 1.725853 255 -0.0038218831 0.00038848611 -0.99999261 0.00022242189
4.4148941 -1.3866363 1.7256242 255 -0.013975957 0.0089405449 -0.99986237 0.00016686745
4.392592 -1.2887266 1.7280657 255 -0.012357894 0.012849091 -0.99984103 0.00012609536
4.3598981 -1.1965657 1.7302275 255 -0.010699025 0.012835405 -0.99986041 0.00011714087
4.3316102 -1.1047438 1.7326844 255 -0.0075758621 0.0062999534 -0.99995142 4.9400525e-05
4.3013253 -1.0067203 1.7321528 255 -0.0070198081 -0.0043021385 -0.99996614 7.345029e-05
4.274034 -0.90703958 1.7314556 255 -0.0081950072 -0.010729383 -0.99990886 2.3021137e-05
4.2453446 -0.81326914 1.7315445 255 -0.0068220808 -0.010492214 -0.99992168 8.034466e-05
4.2158461 -0.71618414 1.731335 255 -0.0025051148 -0.0087020965 -0.99995899 0.00011742747
4.18608 -0.61754668 1.7298415 255 0.0035171765 -0.0061946968 -0.99997461 8.5962245e-05
4.1583877 -0.52355695 1.729848 255 0.0088830423 -0.0089402813 -0.99992049 0.00012889595
4.1282477 -0.42760149 1.7275896 255 0.022096215 -0.012663017 -0.99967551 0.00011315937
4.0999255 -0.33164021 1.7256427 255 0.028340993 -0.011721883 -0.99952948 0.0001081346
4.0721159 -0.23779339 1.7236732 255 0.027647672 -0.005895766 -0.99960023 0.00019150446
4.0532079 -0.14980674 1.7235811 255 0.025463995 3.1724034e-05 -0.99967563 0.0002300184
4.0344896 -0.059664804 1.7248348 255 0.019362137 0.0039107464 -0.99980479 0.00022746158
6.5128899 -8.5881357 1.5401256 255 -0.98861641 0.09619572 -0.11529233 0.056407418
6.2604718 -7.9078274 1.6198522 255 -0.07830447 -0.025244335 -0.99660975 0.0050750016
6.2927613 -7.7999763 1.6196939 255 -0.021939637 -0.013389891 -0.99966967 0.0030909781
6.214994 -7.7376289 1.6177945 255 0.012897263 -0.0096690608 -0.99987 3.4962221e-05
6.2180314 -7.6030207 1.6163085 255 0.0072894762 -0.0082756197 -0.99993914 4.4129927e-05
6.1452622 -7.5507436 1.6158754 255 0.0043400642 -0.0055172406 -0.99997532 2.3124865e-05
6.1501799 -7.4240847 1.6149368 255 0.00097550958 -0.0018876882 -0.99999768 3.5758461e-05
6.1218352 -7.3489943 1.6146119 255 -0.00039871657 -0.0017323912 -0.99999839 1.2431511e-05
6.0668225 -7.2497492 1.6157733 255 -0.0036586961 -0.0077730236 -0.9999631 5.9938706e-05
6.0759888 -7.1370902 1.6139178 255 -0.0042051901 -0.014445021 -0.99988681 6.6754917e-05
6.027689 -7.0739098 1.6149123 255 -0.008335202 -0.015381518 -0.99984694 6.277347e-05
5.9906135 -6.9585085 1.6135726 255 -0.013031509 -0.017308755 -0.99976522 3.9993378e-05
6.0074706 -6.8805203 1.6112387 255 -0.013233005 -0.017424248 -0.99976057 1.004176e-05
5.9067049 -6.7819772 1.6120644 255 -0.02151986 -0.0081906281 -0.99973488 0.0001012435
5.8986812 -6.674654 1.6114173 255 -0.024756938 -0.0067118499 -0.99967098 5.3860262e-05
5.2156248 -4.3824296 1.6612729 255 0.0059305886 0.97655761 -0.21496549 0.02499523
4.7984581 -3.0528495 1.7462319 255 0.0015557174 -0.0052625528 -0.99998492 0.00048294151
4.7742915 -2.9340119 1.7472365 255 -0.00075208122 0.0045993472 -0.99998909 0.00057835365
4.7547774 -2.8498509 1.7483703 255 0.00033133657 -0.0076905517 -0.99997038 0.00041051823
4.7284441 -2.7569208 1.7478324 255 0.0032686398 -0.011486215 -0.99992865 0.00028114527
4.6970077 -2.6605697 1.7478689 255 0.0087272041 -0.0079743918 -0.99993002 0.0001103976
4.6675839 -2.5593674 1.7456584 255 0.0045175231 -0.00092776294 -0.99998933 0
4.6407614 -2.4693625 1.746344 255 0.0029365253 -0.0020296955 -0.99999362 6.117134e-05
4.6083846 -2.377995 1.7461469 255 0.0014207772 -0.010557629 -0.9999432 0.00012053295
4.5865989 -2.2746053 1.7445961 255 0.0077791326 -0.02758274 -0.99958926 0.0001628217
4.5549283 -2.1818185 1.7390581 255 0.015481593 -0.037405029 -0.9991802 0.00010388026
4.5270343 -2.0815938 1.7340256 255 0.017791618 -0.032702293 -0.99930668 0.00010843294
4.4900575 -1.9899918 1.732033 255 0.0089727296 -0.026417706 -0.99961072 0.00019471046
4.4634848 -1.8919524 1.7278736 255 -0.0042720921 -0.014596101 -0.99988431 0.00022986175
4.4412799 -1.7977449 1.7264854 255 -0.012666251 -0.010511811 -0.99986452 0.00028311118
4.4053922 -1.7064698 1.7270715 255 -0.024489217 -0.007764976 -0.99966997 0.00027977864
4.3811293 -1.6074185 1.725674 255 -0.027234493 -0.0075588869 -0.99960053 0.00021626586
4.3517675 -1.5124991 1.7269301 255 -0.03287328 -0.0043273191 -0.99945015 0.00018131529
4.3231974 -1.4178643 1.7287492 255 -0.031890985 0.0016533942 -0.99949002 7.7694698e-05
4.2942524 -1.3197823 1.7297547 255 -0.025040815 0.0054944847 -0.9996714 7.4737676e-05
4.2646704 -1.2230378 1.7315896 255 -0.018914413 0.0042871479 -0.99981189 8.7591179e-05
4.2351336 -1.1288093 1.7336739 255 -0.0094788047 0.00014485465 -0.99995512 0.00010858478
4.2056031 -1.031181 1.7330664 255 -0.0038157871 -0.0056627905 -0.99997669 6.4575586e-05
4.1814036 -0.93598151 1.734374 255 0.0007930061 -0.0090972874 -0.99995828 9.5587573e-05
4.1486411 -0.84193164 1.7336124 255 0.0067376653 -0.011896712 -0.99990648 8.1546154e-05
4.122067 -0.7438125 1.730077 255 0.011541832 -0.010213432 -0.99988109 0.00010648388
4.0905066 -0.65140569 1.7295835 255 0.017345117 -0.012112525 -0.99977618 7.6008007e-05
4.0628886 -0.55596983 1.7269907 255 0.025519414 -0.0120565 -0.99960148 7.7956654e-05
4.0338964 -0.45932999 1.7241139 255 0.028713889 -0.014831145 -0.99947745 0.00014139265
4.0044527 -0.36436996 1.722888 255 0.029528113 -0.011844311 -0.9994936 0.00018439238
3.9807889 -0.28392455 1.7208551 255 0.020814858 -0.0083722984 -0.99974817 0.00018428163
3.9777088 -0.20001352 1.7219377 255 0.023093561 -0.0011284945 -0.99973249 0.00022310618
3.3927553 1.5637999 1.7786479 255 0.0016523936 -0.12470899 -0.99219131 0.035482995
3.4036222 1.6251738 1.7763892 255 -0.022726204 -0.081191629 -0.99643922 0.029401887
6.0612559 -7.3710141 1.618193 255 -0.0020327955 -0.0024043685 -0.99999499 2.1350716e-05
6.0013251 -7.2095656 1.6186366 255 -0.0056476435 -0.012244362 -0.9999091 5.1549934e-05
5.9214754 -6.9083986 1.6123012 255 -0.012928453 -0.017159406 -0.99976915 3.5220663e-05
5.1145234 -4.3802109 1.6667728 255 0.053569458 0.92015392 -0.38777104 0.080294952
5.0644484 -4.377491 1.7052536 255 0.0078573711 0.86510289 -0.50146186 0.084415078
4.7121487 -3.0594869 1.7442855 255 0.0017075747 -0.0011663727 -0.99999785 0.00049389031
4.6818819 -2.9484215 1.7477927 255 0.0046650306 0.0017809332 -0.99998754 0.00047591788
4.6560946 -2.8803737 1.7472039 255 0.018598599 0.00043418337 -0.99982691 0.00032019979
4.636373 -2.788229 1.747008 255 0.011549657 -0.0094161294 -0.9998889 0.0001594613
4.5995173 -2.6942973 1.7461587 255 0.005828253 -0.0029177051 -0.99997872 1.3797573e-05
4.5689878 -2.5927272 1.7446517 255 0.0031637135 -0.00093535846 -0.99999452 2.2708115e-05
4.5444779 -2.4966547 1.7449994 255 0.0002442321 0.0038834938 -0.99999243 2.0091227e-05
4.514461 -2.4009709 1.7461585 255 -0.0044354713 -0.0064397682 -0.99996948 0.00016535488
4.4887433 -2.3135245 1.7463461 255 0.0013771451 -0.028472465 -0.99959362 0.00023594787
4.463903 -2.214272 1.7400805 255 0.0036851438 -0.043418676 -0.99905014 0.00014457919
4.4269757 -2.1133692 1.7341293 255 -0.0037895334 -0.037204225 -0.99930042 0.00020747217
4.3943315 -2.0120699 1.7290305 255 -0.018804977 -0.02187676 -0.99958378 0.00024968642
4.3712263 -1.9228694 1.7318342 255 -0.036296666 -0.012162444 -0.9992671 0.00020022508
4.3404651 -1.8241493 1.7305062 255 -0.042815216 -0.013106148 -0.99899709 0.00019408955
4.3117948 -1.7328936 1.7323411 255 -0.045948509 -0.013484749 -0.99885279 0.0001354628
4.28509 -1.634769 1.7319772 255 -0.043010969 -0.010001462 -0.99902457 0.00011405657
4.2565937 -1.5402832 1.7336466 255 -0.04225973 -0.0087748813 -0.99906814 7.1141403e-05
4.2268772 -1.4442953 1.7342889 255 -0.03346182 -0.0066767507 -0.99941766 0.00013858249
4.1986198 -1.3502792 1.7355709 255 -0.024340199 -0.0042683086 -0.99969471 0.00015672264
4.1683674 -1.2525073 1.7353066 255 -0.011484013 -0.0043960167 -0.99992442 0.00010190914
4.1419668 -1.1556585 1.7344271 255 -0.0046768882 -0.0065596402 -0.99996758 0.00010449511
4.1100764 -1.0617895 1.7343349 255 0.0060112034 -0.0087740663 -0.99994338 8.4336229e-05
4.0829477 -0.96339691 1.7320206 255 0.01453687 -0.011641878 -0.99982649 6.3031322e-05
4.0530744 -0.86921346 1.7303243 255 0.019935377 -0.010815549 -0.99974269 4.0538507e-05
4.025619 -0.77283329 1.7277164 255 0.021525888 -0.011541833 -0.99970156 3.1301202e-05
3.9937143 -0.67865604 1.726141 255 0.021344135 -0.012478665 -0.99969423 0
3.9664855 -0.58344203 1.7243396 255 0.023523429 -0.013547181 -0.9996314 7.5108488e-05
3.938117 -0.48753014 1.7219167 255 0.020004148 -0.014285181 -0.99969769 0.00014372951
3.9113066 -0.39348811 1.7205197 255 0.018313758 -0.010051457 -0.99978167 0.0001823489
3.8946989 -0.31702891 1.7212458 255 0.012364293 -0.003303614 -0.99991804 0.00025807117
3.6061625 0.60023367 1.7456164 255 -0.040205982 0.0095306085 -0.99914598 0.0078322906
3.5703356 0.62263465 1.746443 255 -0.035791527 0.0090744095 -0.99931806 0.008260645
3.3300855 1.3616841 1.7788171 255 -0.080392905 -0.021308823 -0.99653536 0.051749531
3.3462155 1.4263012 1.7810516 255 -0.088643819 0.036866195 -0.9953807 0.046984013
3.3541603 1.5107671 1.778459 255 -0.060638525 -0.05226155 -0.99679071 0.045393739
5.041698 -4.3839884 1.6442237 255 0.088003509 0.98454309 -0.15112337 0.03522902
5.0067148 -4.3781009 1.6684282 255 0.045261074 0.95026314 -0.3080028 0.065147854
4.6260858 -3.0794086 1.7469324 255 0.0074329828 -0.008123572 -0.99993932 0.00036546169
4.5882401 -3.0046918 1.7462485 255 0.0045039291 -0.0030933763 -0.9999851 0.00038328083
4.5633907 -2.9079127 1.7461928 255 0.0054175444 -0.0040811487 -0.99997699 0.00021179426
4.5313396 -2.8141925 1.7467284 255 0.0055302344 -0.0065017622 -0.99996364 0.00012871913
4.5055065 -2.7152691 1.7457417 255 -0.00086624245 -0.0037026736 -0.99999279 4.7001238e-05
4.4756141 -2.6250296 1.7442312 255 -0.0047770906 -0.00056316279 -0.99998844 2.5803356e-05
4.4516373 -2.5315659 1.7466369 255 -0.0086818105 0.0042189648 -0.99995339 4.4250199e-05
4.4214287 -2.4290993 1.7472315 255 -0.0076598171 -0.0069290958 -0.99994665 0.00018075459
4.3898611 -2.3402822 1.7492052 255 -0.0056823986 -0.026905168 -0.99962187 0.00026917507
4.3613787 -2.2319126 1.7382526 255 -0.015861426 -0.045267083 -0.99884892 0.00020022999
4.3315301 -2.1396048 1.7346979 255 -0.027536631 -0.035630591 -0.99898559 0.0002457262
4.3045559 -2.0470448 1.7341658 255 -0.041762631 -0.018261634 -0.99896073 0.0001904876
4.2731156 -1.9563504 1.7363427 255 -0.045682661 -0.010154579 -0.99890447 0.00012754228
4.247756 -1.8590559 1.7377974 255 -0.047049057 -0.007866269 -0.99886161 0.00013057141
4.2181063 -1.760114 1.7389669 255 -0.039577063 -0.014282913 -0.99911451 0.00017368769
4.1904197 -1.6648098 1.7406392 255 -0.031503342 -0.01182296 -0.99943376 0.00026005891
4.159627 -1.5653211 1.7391752 255 -0.024047712 -0.01327733 -0.9996227 0.00029999984
4.1312022 -1.4736947 1.7377893 255 -0.012731615 -0.0086658904 -0.99988133 0.00026623157
4.1042924 -1.377548 1.7370594 255 -0.0079985969 -0.0085963747 -0.9999311 0.00015137877
4.0732636 -1.2844558 1.7363356 255 -0.00057562697 -0.0083712861 -0.99996477 9.0305359e-05
4.043973 -1.1884129 1.7350209 255 0.0058599729 -0.012351753 -0.99990648 4.2770371e-05
4.0151439 -1.0892025 1.7319825 255 0.011815004 -0.016586591 -0.99979258 7.9033589e-06
3.9865825 -0.99556702 1.7297567 255 0.01810649 -0.016897891 -0.99969316 2.0059993e-05
3.9584024 -0.89900559 1.7269739 255 0.019499213 -0.014856449 -0.99969941 3.1222837e-05
3.9278491 -0.80357736 1.7257715 255 0.015928576 -0.010060413 -0.99982244 5.7914298e-05
3.8997962 -0.70568943 1.7239765 255 0.012565697 -0.010603311 -0.99986476 2.5143514e-05
3.8700132 -0.61011726 1.7231221 255 0.01136099 -0.016327973 -0.99980211 0.00011491388
3.8417017 -0.51514208 1.7213428 255 0.0072147567 -0.014033169 -0.99987549 0.0002041245
3.8142729 -0.42553833 1.7206589 255 0.0025474078 -0.0090742735 -0.99995559 0.00021035367
3.7921991 -0.34526402 1.7209681 255 -0.0072951745 -0.0020429075 -0.99997127 0.00022194315
3.4941237 0.65087575 1.7490963 255 -0.053537074 0.027769443 -0.99817961 0.015772432
3.4407611 0.68336582 1.7535853 255 -0.016339326 0.015384595 -0.99974817 0.019554835
3.2686822 1.2350112 1.7809582 255 -0.012831282 0.088038348 -0.99603397 0.051445052
3.3016238 1.3031603 1.77894 255 -0.064510092 0.053013589 -0.9965077 0.051308218
3.2835169 1.396436 1.7765603 255 0.032273579 -0.004193468 -0.99947011 0.052153427
3.1174722 1.8427501 1.7789168 255 -0.050804205 -0.077197507 -0.99572045 0.02564089
4.9054065 -4.3748994 1.6638892 255 0.017892651 0.96487933 -0.26191553 0.034313973
4.5103264 -3.1247284 1.7459258 255 -0.00025154985 -0.015324146 -0.99988252 0.00040820573
4.4931393 -3.0299475 1.7456301 255 0.0037271713 -0.0027221192 -0.99998933 0.00024345159
4.4706364 -2.9442904 1.7464669 255 0.0034883784 -0.0050119376 -0.99998134 0.00020853945
4.4391074 -2.8417442 1.7456501 255 -0.0024949373 -0.0045586731 -0.99998647 5.6998695e-05
4.4078507 -2.7458141 1.7464871 255 -0.011099432 -0.0023559849 -0.99993563 4.0533479e-05
4.3840299 -2.643441 1.7459092 255 -0.01136032 -0.0010290982 -0.99993497 3.2985179e-05
4.350687 -2.5560548 1.7459954 255 -0.013987166 0.0030997812 -0.99989736 2.3763532e-05
4.3282161 -2.4649119 1.7473017 255 -0.0091400128 -0.005527989 -0.99994302 0.00015301975
4.2941594 -2.3698475 1.7504809 255 -0.0094314171 -0.012430225 -0.99987829 0.00016790209
4.2671623 -2.2659342 1.7451153 255 -0.018177211 -0.032442674 -0.99930823 0.00026781473
4.2357349 -2.1701686 1.7416972 255 -0.030677037 -0.030580755 -0.99906141 0.00028745653
4.2102365 -2.072777 1.7409395 255 -0.039600249 -0.01755764 -0.99906135 0.00021663087
4.1836267 -1.9819472 1.743214 255 -0.036741745 -0.0066081844 -0.99930298 0.00022686203
4.149004 -1.8899975 1.7453815 255 -0.027521605 -0.013221762 -0.99953383 0.00029927905
4.123476 -1.7881365 1.7435306 255 -0.017138338 -0.015937788 -0.99972612 0.00033214007
4.0936942 -1.6924895 1.7410334 255 -0.005654532 -0.015190897 -0.99986857 0.00023865144
4.0645328 -1.5980127 1.7383611 255 -0.00040393058 -0.015497149 -0.99987984 0.00017687758
4.0342116 -1.5032934 1.7369928 255 0.0057410831 -0.011546536 -0.99991679 0.0001090448
4.0073886 -1.4087008 1.7362795 255 0.010017155 -0.0072387941 -0.99992359 6.6132416e-05
3.978492 -1.3114474 1.7339708 255 0.009680544 -0.0075870096 -0.9999243 2.4250314e-05
3.9489536 -1.2157102 1.7340839 255 0.010991594 -0.012494745 -0.99986148 4.2762724e-05
3.9205735 -1.1197393 1.7327819 255 0.010599828 -0.01969848 -0.99974966 4.9369479e-05
3.8894958 -1.0229173 1.728153 255 0.012413044 -0.019749371 -0.99972785 6.4847438e-05
3.8601799 -0.92742103 1.7249305 255 0.009186388 -0.016503138 -0.9998216 5.633826e-05
3.832535 -0.83256173 1.7252741 255 0.0061161616 -0.010632442 -0.99992478 6.1589904e-05
3.8049369 -0.73671895 1.724052 255 0.003207915 -0.010173193 -0.99994302 2.9334577e-05
3.7753189 -0.63997853 1.7229072 255 0.0010001527 -0.01679337 -0.99985844 5.7424237e-05
3.7453129 -0.54367089 1.7214556 255 -0.00616846 -0.012419393 -0.99990386 0.0001101402
3.7148824 -0.45192903 1.7213396 255 -0.014274234 -0.0013815014 -0.99989712 0.00024367723
3.6829979 -0.36572385 1.7221309 255 -0.010874012 0.001738222 -0.99993932 0.00022855701
3.6579287 -0.28907275 1.7235382 255 -0.012679178 -0.00042883441 -0.99991953 0.00022910202
3.6680145 -0.18891373 1.7252312 255 -0.0081451638 -0.0064135636 -0.99994624 0.00015990662
3.4315739 0.66121864 1.7488618 255 -0.016339665 0.015478396 -0.99974668 0.019541545
3.3687425 0.70548934 1.7584064 255 -0.038522445 -0.016704978 -0.99911809 0.024145298
3.318258 0.74505681 1.7616018 255 -0.0336948 -0.019322488 -0.99924535 0.029251426
3.2274947 1.1786679 1.7782549 255 -0.094576254 0.054929186 -0.99400067 0.048574589
3.2144759 1.2649316 1.7760054 255 0.09304513 -0.028618596 -0.99524975 0.050134696
3.0376339 1.6779186 1.7886657 255 -0.017769584 -0.045844574 -0.9987905 0.05031383
3.0627904 1.7342228 1.7850885 255 -0.075395808 -0.028849376 -0.99673623 0.044823024
4.7955599 -4.3734789 1.6657634 255 -0.032366332 0.93550944 -0.35169813 0.082281634
4.4702969 -3.2255938 1.7451059 255 0.0017287302 -0.019271759 -0.99981278 0.00034953523
4.4481535 -3.1375213 1.7475988 255 -0.0062617301 -0.015072864 -0.99986678 0.00031545444
4.4027061 -3.0593355 1.7488017 255 -0.013638388 -0.0073486161 -0.99988002 0.00021577375
4.3682704 -2.9693506 1.7470442 255 -0.015876144 -0.0089567285 -0.99983388 0.00010891932
4.3473125 -2.8705471 1.7466893 255 -0.016271921 -0.0035331065 -0.99986136 4.9716236e-05
4.3100014 -2.7797387 1.7488118 255 -0.014983313 -0.0039682984 -0.99987996 4.6947815e-05
4.2907462 -2.677968 1.7484258 255 -0.013628627 -0.002858225 -0.99990308 3.748115e-05
4.2581224 -2.590518 1.7488918 255 -0.007703478 -0.00040648444 -0.99997026 4.9604929e-05
4.2278714 -2.4894671 1.7481173 255 -0.0011999593 -0.0011379254 -0.99999869 5.765264e-05
4.2029095 -2.3876789 1.7499964 255 -0.0054325014 -0.010179353 -0.99993336 0.00021613989
4.1646299 -2.2897115 1.7487367 255 -0.0098689776 -0.015903141 -0.99982488 0.00030578149
4.1415048 -2.2056899 1.7491651 255 -0.01772139 -0.019390222 -0.99965495 0.00031227496
4.1138072 -2.1083312 1.7475096 255 -0.017951801 -0.012616966 -0.9997592 0.00033036844
4.0841618 -2.0075467 1.7457745 255 -0.011227068 -0.010090836 -0.9998861 0.00029591282
4.0569835 -1.917791 1.744871 255 -0.0018257517 -0.013957334 -0.99990094 0.00022135454
4.027245 -1.8189833 1.7421644 255 0.0065451763 -0.016308766 -0.99984556 8.3440282e-05
3.995574 -1.7233971 1.7401059 255 0.014004558 -0.017692216 -0.99974537 4.5718163e-05
3.9688385 -1.6262903 1.7360691 255 0.015665667 -0.014474811 -0.99977249 1.0475286e-05
3.9413533 -1.5355995 1.7350551 255 0.015647221 -0.011872355 -0.999807 3.8763061e-05
3.9102116 -1.4382533 1.7335721 255 0.012173764 -0.0065537961 -0.99990439 1.4785451e-05
3.8814557 -1.338154 1.7330999 255 0.011893173 -0.0054794508 -0.99991429 1.9308309e-05
3.8549182 -1.2444733 1.732326 255 0.010682955 -0.0095388461 -0.99989742 3.7969217e-05
3.8249748 -1.1510522 1.7321604 255 0.0096546113 -0.016340321 -0.99981987 5.6474477e-05
3.7927771 -1.0528625 1.7289506 255 0.0068192082 -0.019282453 -0.99979073 5.9152066e-05
3.7662916 -0.9559294 1.7254856 255 0.0021445488 -0.017077504 -0.99985188 3.2911801e-05
3.7380049 -0.86201054 1.7260194 255 -0.0014932833 -0.011952532 -0.99992746 4.1699186e-05
3.7078989 -0.76753592 1.7255188 255 -0.0018113356 -0.0094282413 -0.99995393 4.4899778e-05
3.6794147 -0.66938126 1.7241224 255 -0.0010313562 -0.013515596 -0.99990815 2.0003792e-05
3.6502779 -0.57293832 1.7231685 255 0.0031978304 -0.010843727 -0.9999361 0.00013017451
3.6200569 -0.47837529 1.7222744 255 -0.0016554062 -0.0028896551 -0.9999944 0.00019982916
3.603157 -0.38917017 1.7226655 255 -0.0045101768 -0.0027274787 -0.99998611 0.00020277016
3.6029861 -0.29969522 1.7239368 255 -0.0075501818 0.0018413857 -0.99996978 0.00026485813
3.2983675 0.71719545 1.7650762 255 -0.033691067 -0.019306097 -0.99924588 0.02929512
3.2494533 0.7525425 1.7722793 255 0.025788244 0.016150609 -0.99953681 0.028856166
3.1892366 0.80686969 1.759475 255 -0.006716961 -0.089213707 -0.99598956 0.032157551
3.1212292 1.088403 1.7825944 255 -0.075663455 0.095740467 -0.99252588 0.045953717
3.1575179 1.1183844 1.7783089 255 -0.068482317 0.05250401 -0.99626958 0.050810724
3.0154908 1.3658824 1.782987 255 -0.20721906 -0.077920616 -0.97518486 0.055876844
3.0124288 1.3856814 1.7879622 255 -0.20667937 -0.065852001 -0.97618854 0.056366965
2.9804873 1.5473206 1.7843454 255 0.056887411 -0.09375976 -0.99396765 0.054282129
3.0100431 1.6186739 1.7915183 255 -0.058588475 -0.016828252 -0.99814034 0.04785227
4.7284198 -4.3765965 1.6585897 255 0.07202483 0.96405011 -0.25560045 0.064586148
4.6888895 -4.3732042 1.6675003 255 -0.0093864268 0.94391197 -0.32993615 0.06942153
4.3885021 -3.1934521 1.7450047 255 -0.009655376 -0.01300354 -0.99986893 0.00030660705
4.3132439 -3.0903101 1.7478888 255 -0.018572444 -0.011907578 -0.99975663 0.00024916089
4.283536 -3.0025272 1.7500223 255 -0.013519141 -0.013787765 -0.99981362 8.8020584e-05
4.2484794 -2.9022844 1.7494882 255 -0.012633385 -0.0052200304 -0.9999066 6.7308953e-05
4.2152438 -2.8074887 1.7498333 255 -0.0057240129 -0.0052456711 -0.99996984 9.4636984e-05
4.1977425 -2.7136827 1.7498993 255 -0.0050352789 -0.0054746727 -0.99997234 6.2731073e-05
4.1623592 -2.6118481 1.7504295 255 0.0022660929 -0.0028751171 -0.99999326 5.6129673e-05
4.1241546 -2.5130956 1.7472327 255 0.0073435414 -0.0010824511 -0.9999724 8.2965824e-05
4.1038294 -2.4230287 1.7486978 255 0.010371421 -0.0011444908 -0.99994546 6.58883e-05
4.0734239 -2.3296812 1.7479805 255 0.0098635387 -0.00012289923 -0.9999513 6.1449144e-05
4.0477381 -2.2327354 1.7471153 255 0.0024727241 -0.011087738 -0.99993545 0.00010500341
4.0195899 -2.1325943 1.7457911 255 0.0028640125 -0.011962983 -0.9999243 0.00013009598
3.987026 -2.0370073 1.7441359 255 0.0079355817 -0.012291035 -0.99989295 6.9582922e-05
3.9599075 -1.9448088 1.7434815 255 0.017359095 -0.01460364 -0.99974257 2.512141e-05
3.9283557 -1.8478286 1.7399515 255 0.017832048 -0.01782023 -0.99968213 2.3671602e-05
3.900404 -1.7525342 1.738067 255 0.016872291 -0.017887397 -0.99969757 3.4125253e-05
3.8733087 -1.6543175 1.736214 255 0.014780078 -0.013366742 -0.99980134 3.1998632e-05
3.8455591 -1.5578873 1.7353951 255 0.013291256 -0.010711883 -0.99985427 2.7120466e-06
3.8116045 -1.4650455 1.7338471 255 0.01137897 -0.006412243 -0.99991465 0
3.7873948 -1.366614 1.7312871 255 0.010923404 -0.0057795923 -0.99992359 2.900849e-06
3.7585158 -1.2746227 1.7337568 255 0.010358884 -0.0053666001 -0.99993193 2.99237e-05
3.7299004 -1.1777476 1.7313441 255 0.0084627792 -0.012982945 -0.99987984 6.2105151e-05
3.6989822 -1.0840831 1.7303444 255 0.0063102758 -0.016822843 -0.99983859 2.5212028e-05
3.6686306 -0.98377317 1.726843 255 -0.00095722184 -0.011944647 -0.99992818 4.162157e-05
3.643064 -0.88860154 1.7268244 255 -0.0017346886 -0.011309792 -0.99993449 9.0935009e-06
3.6119423 -0.79512739 1.726022 255 -0.00027035433 -0.011569795 -0.99993306 0
3.583056 -0.69739425 1.724784 255 0.0062675118 -0.014716909 -0.99987203 1.7307266e-05
3.5544739 -0.602337 1.7230592 255 0.0060873926 -0.013214611 -0.99989414 9.6185126e-05
3.5308392 -0.50928146 1.7222698 255 0.0068229903 -0.0060531758 -0.99995834 0.00020694765
3.5035958 -0.43096349 1.7221661 255 0.010511369 0.00082411274 -0.99994433 0.00026468153
3.4861963 -0.35937914 1.7236198 255 0.01352495 -0.0018300223 -0.99990678 0.00014914192
3.1572049 0.76286829 1.7701176 255 -0.010624964 0.0037213641 -0.99993658 0.033819579
3.1192594 0.81248116 1.7742639 255 0.027736545 -0.0030651654 -0.99961042 0.02983008
3.0616217 1.0693071 1.7830732 255 -0.1244432 0.0029350223 -0.99222207 0.04343516
3.0187635 1.0837165 1.7860465 255 -0.092150278 0.067829579 -0.99343175 0.046863358
2.9610977 1.2434344 1.8070695 255 -0.27637589 0.066124469 -0.9587689 0.064695902
2.9804063 1.2968584 1.792666 255 -0.35082307 -0.013501216 -0.93633926 0.085208893
2.9280481 1.3983098 1.7828361 255 0.082744464 -0.12503758 -0.98869443 0.060088556
2.9556222 1.4895036 1.7798893 255 0.033275582 -0.13853793 -0.989797 0.056723438
4.5991254 -4.374043 1.6672919 255 0.0087724291 0.95884705 -0.28363436 0.045888077
4.2383218 -3.1118827 1.7496103 255 -0.01096918 -0.0027309316 -0.9999361 0.00035980518
4.1777563 -3.02514 1.7517284 255 -0.00051472854 -0.0010708427 -0.99999928 0.00032951761
4.1481581 -2.926209 1.7513043 255 0.0042565302 -0.0088541545 -0.99995178 0.00017059017
4.1269102 -2.838167 1.7523867 255 0.0075275735 -0.0066918605 -0.99994922 0.00011311722
4.0931902 -2.7407324 1.7496459 255 0.011027004 -0.0053112837 -0.99992502 7.4773183e-05
4.0699177 -2.647624 1.7490911 255 0.013082405 -0.0057451078 -0.9998979 4.760957e-05
4.0343699 -2.5534174 1.7468327 255 0.015612325 -0.0021571345 -0.99987572 1.4242497e-05
4.0067868 -2.453584 1.7462585 255 0.015444053 0.0019795105 -0.99987876 3.0951793e-05
3.9784696 -2.3517659 1.7470441 255 0.012473311 0.0019437646 -0.99992019 2.2780299e-05
3.9538188 -2.2557058 1.7470393 255 0.012758927 -0.0042425701 -0.99990952 4.394869e-05
3.9233608 -2.1600072 1.7449518 255 0.012978584 -0.010640167 -0.99985909 1.4115334e-05
3.8945231 -2.0675519 1.742443 255 0.014559445 -0.013398817 -0.9998042 0
3.8644543 -1.9742299 1.7419618 255 0.014326991 -0.015734846 -0.9997735 5.5768185e-05
3.8366172 -1.8755902 1.738685 255 0.015121114 -0.017045327 -0.9997403 2.6693879e-05
3.8021581 -1.782146 1.7367129 255 0.013201486 -0.019739611 -0.99971795 1.0536211e-05
3.7758045 -1.6852232 1.7349992 255 0.011858674 -0.013926924 -0.99983263 2.9817065e-05
3.7486379 -1.5891024 1.7332451 255 0.010125172 -0.010211126 -0.99989659 1.1678143e-05
3.7156508 -1.4935589 1.7335303 255 0.0093028843 -0.0066736788 -0.99993443 2.648935e-05
3.6901417 -1.3957561 1.732115 255 0.0073178234 -0.006406731 -0.99995261 3.4294237e-05
3.6632488 -1.3025881 1.7310994 255 0.0076064887 -0.0062120748 -0.99995172 1.0123152e-05
3.6332576 -1.2059342 1.7291479 255 0.0053560925 -0.010410868 -0.9999314 4.4875724e-05
3.6030428 -1.1137985 1.7292088 255 0.002432978 -0.013319561 -0.99990833 6.5270477e-05
3.5760875 -1.0132091 1.7273141 255 -0.0014925379 -0.01025781 -0.99994624 1.1414621e-05
3.5451286 -0.91780752 1.7269973 255 -7.9749327e-05 -0.011555872 -0.99993318 4.0935913e-05
3.5151448 -0.82212281 1.7255557 255 0.00422076 -0.013085055 -0.99990541 3.7961505e-05
3.4897959 -0.72716266 1.7240366 255 0.011302521 -0.016369499 -0.99980211 8.9462592e-05
3.4598081 -0.63268781 1.7225783 255 0.014873616 -0.012958603 -0.99980533 0.00017369814
3.4418852 -0.5439465 1.7212305 255 0.011740589 -0.0018847446 -0.99992919 0.00019271966
3.4063053 -0.46032342 1.7220327 255 0.0068176887 -0.0025971371 -0.9999733 0.00017976367
3.0284982 0.81017429 1.7752081 255 -0.07472226 -0.027381236 -0.99682838 0.026712336
2.9902542 0.88924509 1.768407 255 -0.12183703 0.042599011 -0.99163502 0.027782489
2.9214008 1.0130203 1.7642518 255 -0.1096348 0.025730493 -0.99363852 0.027929775
2.9310822 1.0900453 1.7922924 255 -0.1282497 0.14135964 -0.98161423 0.07485906
2.8947001 1.1983836 1.7888256 255 -0.073573627 0.04849568 -0.99610972 0.095867425
2.9014361 1.2659862 1.7876563 255 0.15381201 -0.13901056 -0.97827059 0.094224103
2.8898802 1.3500785 1.7913773 255 0.24733491 -0.23605095 -0.93973064 0.055220511
4.4880109 -4.3729835 1.6677836 255 0.0052097482 0.96005243 -0.27961615 0.057330173
4.1510267 -3.2284853 1.7469945 255 0.0089284852 -0.00060869538 -0.99995983 0.00037147175
4.0951943 -3.1518488 1.7500783 255 0.013994748 -0.00569413 -0.9998858 0.00030554278
4.0837665 -3.051357 1.7503515 255 0.014355425 -0.0037378685 -0.99988985 0.00032912512
4.0613937 -2.9611268 1.7495099 255 0.017535435 -0.0066074943 -0.99982435 0.0001715527
4.0245976 -2.8661728 1.748281 255 0.017915085 -0.0019069118 -0.99983764 9.7019165e-06
3.9981854 -2.7715204 1.7475681 255 0.019115461 -0.0042127827 -0.99980831 0
3.9668677 -2.6772707 1.7461611 255 0.019673271 -0.0062254569 -0.99978697 1.8730543e-05
3.9459438 -2.5753355 1.7452309 255 0.017686434 -0.0015027588 -0.99984241 5.0369657e-05
3.9163506 -2.4805849 1.7441262 255 0.012765514 0.0028191858 -0.99991453 1.8992745e-05
3.8820159 -2.3892941 1.7444195 255 0.0098660924 0.0052675405 -0.99993742 1.7424132e-05
3.8554776 -2.2905822 1.7455515 255 0.0092250742 -0.003332122 -0.99995184 3.486194e-05
3.8269479 -2.188915 1.7449696 255 0.010758682 -0.0088964533 -0.99990255 4.7892161e-05
3.7963545 -2.0925603 1.7417805 255 0.010196635 -0.014763991 -0.99983895 1.397326e-05
3.7714703 -2.0033174 1.7418475 255 0.0090685422 -0.016776232 -0.99981815 3.7897924e-05
3.741909 -1.9031914 1.7390457 255 0.0067484756 -0.017744316 -0.9998197 2.7685264e-05
3.704634 -1.8087379 1.7365848 255 0.00034510269 -0.019172886 -0.99981606 0.00014650231
3.6778109 -1.713622 1.7343678 255 -0.0037481124 -0.019080117 -0.99981093 0.00014704316
3.6513908 -1.6164914 1.7330174 255 -0.00091366662 -0.015965888 -0.99987215 0.00016139093
3.6209366 -1.5240035 1.7312737 255 0.0025799791 -0.009160066 -0.99995476 5.8370224e-05
3.5961859 -1.4280035 1.7306821 255 0.0027217306 -0.005373097 -0.99998182 2.4449719e-05
3.5642116 -1.3314911 1.7302675 255 -0.00046445467 -0.0070685428 -0.99997491 6.3587926e-05
3.5389934 -1.2329761 1.729148 255 0.0016475763 -0.0092107737 -0.99995619 6.4401625e-05
3.5089533 -1.1383659 1.729007 255 -0.00068940781 -0.010802127 -0.99994141 5.203643e-05
3.4791648 -1.0417199 1.7271676 255 2.569418e-05 -0.012518059 -0.99992168 1.1982291e-05
3.4496636 -0.9481715 1.7280725 255 0.0014578399 -0.014428519 -0.9998948 2.2818895e-05
3.4215238 -0.85200971 1.7259504 255 0.005003673 -0.018080639 -0.99982393 8.3223924e-05
3.3916304 -0.75621444 1.7228925 255 0.005888924 -0.021499924 -0.99975151 8.110315e-05
3.3652153 -0.65992248 1.7215589 255 0.0050780675 -0.014844174 -0.99987692 0.00023326112
3.3438122 -0.57865107 1.7211372 255 -0.0014426745 -0.0043135048 -0.99998963 0.00023659295
3.3146994 -0.48082849 1.7227025 255 -0.0037040173 -0.0013789843 -0.99999219 0.00022741999
2.9181571 0.68294358 1.7606275 255 -0.11271127 0.083666839 -0.99009836 0.0142646
2.9110782 0.78907186 1.7715958 255 -0.072137997 0.051242001 -0.99607724 0.018258695
2.8834863 0.84306014 1.7895979 255 -0.054834221 -0.010144417 -0.99844396 0.017999807
2.8845508 0.98710281 1.7707081 255 -0.035895176 0.035607077 -0.99872094 0.022626445
2.8498023 1.0712483 1.7745072 255 0.041642174 0.12669818 -0.99106568 0.052200872
2.8453407 1.1485775 1.7769899 255 0.17599785 0.040372606 -0.98356009 0.055935718
2.7920744 1.2208748 1.7918524 255 0.12904371 -0.010110583 -0.99158621 0.065842882
4.4092803 -4.3712831 1.6610162 255 0.063290894 0.96085596 -0.26955971 0.075020783
4.362422 -4.3702674 1.6804187 255 -0.066992544 0.94239646 -0.32759219 0.078177698
4.0342975 -3.3692236 1.7465333 255 0.017296899 -0.0074133575 -0.9998228 0.00032552774
4.0462446 -3.2512803 1.7493719 255 0.014797747 -0.0028918015 -0.99988627 0.00040978461
4.0283694 -3.1733179 1.7487328 255 0.018689292 -0.0033088909 -0.9998197 0.00041005085
3.9869692 -3.0841379 1.7472386 255 0.024479978 -0.0090770386 -0.99965894 0.00017463174
3.963948 -2.990799 1.7473811 255 0.020886201 -0.0061860839 -0.99976265 7.3113028e-05
3.9296622 -2.8936164 1.7463229 255 0.017476704 -0.002656233 -0.99984372 0
3.9037275 -2.788775 1.74496 255 0.017031534 -0.004555651 -0.99984449 4.1716215e-05
3.8734608 -2.6981912 1.7447085 255 0.012726722 -0.0049969619 -0.99990648 2.7323329e-05
3.8424449 -2.6002774 1.7419381 255 0.0078330152 -0.0015775963 -0.99996799 1.3149421e-06
3.8189175 -2.5101783 1.7436233 255 0.0067538498 0.0031917619 -0.99997205 2.470831e-05
3.785876 -2.4126179 1.7439972 255 0.0044581494 0.003655843 -0.99998331 4.2685933e-05
3.7569923 -2.3196375 1.7443445 255 0.0066434117 -0.0031252312 -0.99997306 8.0248356e-05
3.732631 -2.2301114 1.744607 255 0.0049309111 -0.0080444198 -0.99995542 5.4560329e-05
3.7036834 -2.1277356 1.7414665 255 0.00031160106 -0.011847876 -0.99992973 8.9690991e-05
3.6719418 -2.0296931 1.7401201 255 -0.0077506006 -0.016255621 -0.99983782 0.00012387833
3.6425889 -1.9322214 1.7390803 255 -0.01927283 -0.015941253 -0.99968714 0.0002143786
3.6126914 -1.8364537 1.7367889 255 -0.023729466 -0.01933117 -0.99953157 0.00031555348
3.5877237 -1.7420146 1.7338691 255 -0.022443878 -0.029779658 -0.99930453 0.00028817114
3.5557194 -1.6425934 1.7312483 255 -0.0094513651 -0.022569653 -0.99970055 0.00020132482
3.5266302 -1.5502834 1.7328061 255 -0.0079047941 -0.018948128 -0.99978924 0.00022531276
3.4980853 -1.4531546 1.7313815 255 -0.0026666373 -0.004627225 -0.99998575 1.1932239e-05
3.4686515 -1.3567084 1.7324961 255 -0.0035468393 -0.0070502819 -0.99996883 1.3288943e-05
3.4392078 -1.2595395 1.7321298 255 -0.0022193165 -0.010317396 -0.99994439 3.5154077e-05
3.4115372 -1.1653843 1.7304757 255 -0.0023896557 -0.011683214 -0.99992895 3.0744366e-05
3.3852878 -1.0735416 1.7289187 255 -0.0015060629 -0.011967611 -0.99992728 1.2705659e-05
3.3544471 -0.97796017 1.7284383 255 -0.00096633541 -0.014765684 -0.99989051 2.8670824e-05
3.3257635 -0.87958527 1.7253817 255 -0.00032852814 -0.018397922 -0.99983066 2.2027589e-05
3.29603 -0.7843194 1.723096 255 -8.8047345e-05 -0.020210272 -0.99979573 0.00011163631
3.2680159 -0.68902856 1.7216276 255 -0.006881915 -0.017167222 -0.99982893 0.00013831552
3.2396944 -0.60900265 1.7217463 255 -0.011542965 -0.0074259331 -0.99990588 0.00018214242
3.1847284 -0.54242498 1.7232766 255 -0.013371548 -0.0027595693 -0.99990684 0.00018123223
2.9249046 0.29530191 1.7460213 255 -0.089732602 0.087719902 -0.99209487 0.0050910763
2.9160514 0.36295086 1.7535137 255 -0.10991721 0.058978081 -0.99218893 0.0063432851
2.9010148 0.45728582 1.7645977 255 -0.10114909 0.0055105868 -0.99485588 0.0074744034
2.8843012 0.5552035 1.7677124 255 -0.094160825 0.019838169 -0.99535918 0.0081775188
2.8649948 0.6535266 1.7664448 255 -0.056615241 0.07688912 -0.99543059 0.010867407
2.8389244 0.7474547 1.7673016 255 -0.048055638 0.01880341 -0.9986676 0.013027661
2.8267057 0.84591061 1.7708517 255 0.01912001 0.022503618 -0.99956375 0.0096237902
2.781039 0.93839955 1.7810929 255 0.037779663 0.0047930032 -0.99927437 0.011315083
2.7433615 1.0136333 1.7854419 255 0.036342066 -0.037626453 -0.99863058 0.012247707
2.6950767 1.2347698 1.7964666 255 -0.036913667 0.032558851 -0.99878782 0.025397439
2.6431561 1.2821213 1.7863647 255 -0.039787848 -0.059275817 -0.99744838 0.034410048
4.2770009 -4.3710442 1.669118 255 -0.0083479797 0.96816665 -0.24999024 0.047857843
3.948 -3.2963808 1.7474326 255 0.020447848 -0.0057979939 -0.99977404 0.0002991106
3.9221475 -3.209003 1.7469473 255 0.016201105 -0.0069078654 -0.99984479 0.00017354509
3.8911929 -3.1112497 1.74661 255 0.019370165 -0.0073992754 -0.99978495 0.00010786563
3.867331 -3.0054157 1.7446965 255 0.011028129 -0.003082067 -0.99993438 2.8722096e-05
3.8339324 -2.9263103 1.7442467 255 0.0095021771 -0.0033524318 -0.99994916 1.0848302e-05
3.8101509 -2.8243215 1.7447933 255 0.0083190296 -0.0056638871 -0.99994928 2.7404127e-05
3.7775335 -2.7259879 1.7430526 255 0.0035456649 -0.0029365115 -0.99998933 4.0399951e-05
3.7460914 -2.6350591 1.7433531 255 0.0019391937 -0.0025811431 -0.99999475 4.394288e-05
3.7200339 -2.5379577 1.7441204 255 0.00023963967 0.0013878318 -0.99999899 2.8308743e-05
3.6937008 -2.4401333 1.7436281 255 0.0017535303 0.0032492697 -0.99999315 3.7753103e-05
3.660943 -2.3485875 1.7451485 255 0.0019934298 -0.0018628569 -0.99999624 5.1131614e-05
3.6360061 -2.2481618 1.7434883 255 -0.001174197 -0.0043990701 -0.99998963 9.1833594e-05
3.6082304 -2.1545415 1.7415154 255 -0.0088206092 -0.0080424463 -0.99992877 0.00016877051
3.5795341 -2.0641515 1.7413455 255 -0.020818952 -0.014528352 -0.99967772 0.00020128414
3.5463555 -1.9670784 1.7397934 255 -0.028195482 -0.010129394 -0.99955118 0.00024989672
3.5171502 -1.8659344 1.740333 255 -0.031794224 -0.019068748 -0.99931258 0.00022624647
3.4930198 -1.77195 1.7447193 255 -0.031093154 -0.031515084 -0.9990195 0.00028238032
3.4626179 -1.675089 1.738844 255 -0.025775464 -0.037305038 -0.99897152 0.00029864933
3.4306202 -1.5794903 1.7321734 255 -0.0086588459 -0.030106802 -0.99950916 0.00034897486
3.4013124 -1.4808242 1.731993 255 -0.004428097 -0.0071103061 -0.99996495 5.4779342e-05
3.3759074 -1.3876264 1.7331731 255 -0.003574532 -0.0073737791 -0.99996644 1.7139942e-05
3.3436689 -1.2934983 1.7320505 255 -0.0027067568 -0.0093708029 -0.99995244 0
3.3182964 -1.1948016 1.7301928 255 -0.0021731392 -0.012173058 -0.99992353 3.4857192e-05
3.2865357 -1.1024107 1.7290633 255 -0.0012661578 -0.012532698 -0.99992073 0
3.2601144 -1.0060368 1.7278417 255 -0.0023340145 -0.013936629 -0.9999001 4.1887757e-05
3.2284281 -0.90817726 1.7260854 255 -0.0033763647 -0.018080369 -0.99983078 9.6782942e-06
3.2014115 -0.81364107 1.7247419 255 -0.0093092527 -0.022379681 -0.99970621 6.6944733e-05
3.1720679 -0.71901095 1.7232674 255 -0.012882942 -0.015632115 -0.9997949 0.00011546441
3.1416245 -0.62945014 1.7230613 255 -0.013828878 -0.0053161057 -0.99989021 0.00027523452
3.102212 -0.54010642 1.723647 255 -0.017134996 0.0070029795 -0.9998287 0.00031228573
3.0577412 -0.45281374 1.7258563 255 -0.014843256 -0.00024818585 -0.99988991 0.00029832564
