# .PCD v0.7 - Point Cloud Data file format
VERSION 0.7
FIELDS x y z rgb normal_x normal_y normal_z curvature
SIZE 4 4 4 4 4 4 4 4
TYPE F F F U F F F F
COUNT 1 1 1 1 1 1 1 1
WIDTH 553
HEIGHT 1
VIEWPOINT 0 0 0 1 0 0 0
POINTS 553
DATA ascii
3.2434731 -6.7818604 1.7575001 65280 -0.0079400558 -0.0078127719 -0.99993801 4.5465607e-05
3.3237784 -6.7642865 1.7543334 65280 -0.0091939671 -0.0093797008 -0.99991381 3.5281777e-05
1.8482548 -6.647521 1.76455 65280 -0.011027228 -0.0042034616 -0.99993032 0.00015758988
1.9505385 -6.6518321 1.763325 65280 -0.012087346 0.0027705189 -0.99992317 7.3356328e-05
2.0649424 -6.6484523 1.7620001 65280 -0.010117638 0.00039440184 -0.99994874 9.6683354e-05
2.1330612 -6.6201706 1.7622 65280 -0.012612431 -0.0082988003 -0.99988604 4.9742765e-05
2.2457724 -6.6867418 1.76095 65280 -0.012145747 -0.0080410121 -0.99989384 7.0639144e-05
2.3469162 -6.6739287 1.758675 65280 -0.0057593901 -0.0091695478 -0.99994135 7.3412019e-05
2.440994 -6.6396761 1.7584499 65280 -0.0017635226 -0.017580006 -0.9998439 5.1441904e-05
2.538424 -6.6489592 1.75968 65280 -0.0026758616 -0.01646764 -0.99986082 7.3576841e-05
2.6436074 -6.6400623 1.7583666 65280 -0.0085955467 -0.017708343 -0.99980617 8.8507513e-05
2.7365642 -6.6331687 1.757475 65280 -0.015104438 -0.016354693 -0.9997521 6.4356303e-05
2.8554645 -6.6553102 1.7564499 65280 -0.010589581 -0.0084710848 -0.99990803 3.7007765e-05
2.9558754 -6.6584601 1.7543999 65280 -0.0026630224 -0.004620099 -0.99998575 4.8383554e-05
3.029371 -6.6334248 1.7557331 65280 0.0015451999 -0.0045330697 -0.9999885 3.6028727e-05
3.1646283 -6.6762309 1.7561334 65280 0.00025782638 -0.0053334679 -0.99998569 6.5838387e-05
3.2434909 -6.6604905 1.7557999 65280 -0.0051714294 -0.0061559784 -0.99996763 2.2301048e-05
3.3042991 -6.6674147 1.755 65280 -0.0089134006 -0.0070304954 -0.99993563 4.9285121e-05
-0.69839692 -6.532341 1.744175 65280 0.97215647 0.006936776 -0.23423013 0.028676629
0.68547589 -6.5784287 1.7507 65280 -0.9830792 0.050607454 -0.17605187 0.026132867
1.8443164 -6.5938501 1.7640001 65280 -0.0044680648 -0.003400021 -0.99998426 0.00015889409
1.9688183 -6.5814934 1.7632999 65280 -0.013503412 -7.6840392e-05 -0.9999088 0.0001356912
2.0471165 -6.5502596 1.7627751 65280 -0.018137267 -0.0034162877 -0.99982971 0.00017735794
2.1485062 -6.5508718 1.762375 65280 -0.017768649 -0.011028185 -0.99978137 0.00011152773
2.2536161 -6.5914445 1.7604333 65280 -0.013598332 -0.011634575 -0.99983984 5.6460525e-05
2.349345 -6.5701852 1.7594801 65280 -0.0095737316 -0.016319811 -0.99982095 8.9261601e-05
2.4451725 -6.5467634 1.7578499 65280 -0.0035562217 -0.018280553 -0.99982661 3.13651e-05
2.5194421 -6.5962019 1.7613 65280 -0.00099377357 -0.016506642 -0.99986327 4.0201161e-05
2.6501575 -6.5550575 1.7588 65280 -0.008944965 -0.021769956 -0.99972296 5.9331192e-05
2.7480536 -6.5642681 1.7579 65280 -0.012397527 -0.018571787 -0.99975061 8.5519649e-05
2.8360417 -6.5448184 1.75705 65280 -0.0074242419 -0.01378765 -0.99987739 6.9848669e-05
2.9491763 -6.5500236 1.75385 65280 0.00060052 -0.011735906 -0.99993092 9.2578157e-05
3.0526626 -6.5614338 1.7562666 65280 -0.00017630259 -0.010415109 -0.99994576 4.586612e-05
3.1397111 -6.5651393 1.7554666 65280 0.00039333175 -0.0092336815 -0.99995726 5.7662935e-05
3.2197006 -6.552752 1.7538333 65280 -5.2037383e-05 -0.0074715251 -0.99997211 6.7033812e-05
0.69038761 -6.4021864 1.74105 65280 -0.9824394 0.020118585 -0.18549404 0.030674579
1.8486099 -6.4716864 1.7695999 65280 -0.0066681146 -0.010080023 -0.99992698 0.00021335445
1.9539961 -6.4533539 1.7687668 65280 -0.016399506 -0.011984587 -0.99979365 0.00023811373
2.052382 -6.4473495 1.7630001 65280 -0.023983056 -0.013832996 -0.99961662 0.00018306266
2.1662269 -6.4880157 1.7615 65280 -0.020552345 -0.016392907 -0.99965441 0.00010985575
2.2541816 -6.4833074 1.7577749 65280 -0.014128922 -0.019170472 -0.99971634 3.3627075e-05
2.3459687 -6.4534369 1.75615 65280 -0.010264034 -0.022978241 -0.99968326 6.7896057e-05
2.4499826 -6.4514952 1.7559999 65280 -0.0031835346 -0.023075446 -0.99972862 5.048783e-05
2.5348482 -6.4695859 1.753775 65280 -0.0041966508 -0.023284793 -0.9997201 7.2864896e-05
2.6323946 -6.4455414 1.755125 65280 -0.0077572125 -0.023203425 -0.99970067 8.4731386e-05
2.7544448 -6.4506388 1.75226 65280 -0.0062996997 -0.020036813 -0.99977946 8.269812e-05
2.8366232 -6.4212761 1.74895 65280 -0.0043103653 -0.019773431 -0.9997952 4.7072735e-05
2.9260006 -6.4372821 1.752425 65280 0.00171339 -0.017182335 -0.99985087 9.5191906e-05
3.0547307 -6.4753985 1.7557501 65280 0.0049018925 -0.011939454 -0.99991673 6.9994705e-05
3.1435604 -6.4556069 1.7553333 65280 0.0032774876 -0.0087481085 -0.99995637 3.699744e-05
3.2020066 -6.4612379 1.7545 65280 0.0025879689 -0.0092128804 -0.99995422 4.4432814e-05
0.689888 -6.3977208 1.7599667 65280 -0.98018241 -0.004959655 -0.198035 0.030573647
1.8554375 -6.3671122 1.7621 65280 -0.0083766831 -0.012448912 -0.99988741 0.00043297478
1.9553671 -6.3434358 1.766 65280 -0.011293923 -0.016763065 -0.99979573 0.00047995415
2.0371602 -6.3229318 1.7579666 65280 -0.029656887 -0.018886952 -0.99938166 0.00037830594
2.1446064 -6.3860674 1.75755 65280 -0.028543593 -0.02411139 -0.99930173 7.2212053e-05
2.2410529 -6.3733678 1.7554499 65280 -0.015691284 -0.026512105 -0.99952537 3.5390785e-05
2.3477426 -6.3518095 1.75328 65280 -0.010795995 -0.028684491 -0.9995302 2.8095896e-05
2.4652374 -6.3884168 1.7557499 65280 -0.0033348864 -0.027724188 -0.99961001 3.5577752e-05
2.5544441 -6.3514271 1.75282 65280 -0.0017703024 -0.025121501 -0.99968284 4.0643085e-05
2.6577573 -6.3467207 1.7517999 65280 -0.0068547078 -0.022789799 -0.99971676 8.0595564e-05
2.7460859 -6.3376107 1.753125 65280 -0.0048486395 -0.022319814 -0.99973911 7.5542332e-05
2.8570194 -6.3457031 1.7511749 65280 -0.002041463 -0.020250522 -0.99979287 7.9309306e-05
2.9556534 -6.3532085 1.7529331 65280 0.0052724024 -0.021596685 -0.99975282 9.0933943e-05
3.0391629 -6.3551846 1.7519666 65280 0.0071814973 -0.017330807 -0.99982393 6.678576e-05
3.1176507 -6.3453965 1.7511333 65280 0.0075195702 -0.01717362 -0.99982429 5.1189065e-05
-0.69444966 -6.2635279 1.7427499 65280 0.97613537 -0.033079896 -0.21462858 0.025848443
0.69365758 -6.2159505 1.745775 65280 -0.9796558 -0.042740572 -0.19608088 0.030334614
1.7301996 -6.2238941 1.75685 65280 0.015703795 -0.030116364 -0.99942303 0.00059848942
1.8486518 -6.2647591 1.7582 65280 0.00017810597 -0.03688113 -0.99931967 0.00062658312
1.9340268 -6.2306328 1.763 65280 -0.0098186946 -0.027974218 -0.99956048 0.00049906812
2.0498798 -6.2430964 1.7566799 65280 -0.02938533 -0.020553326 -0.99935681 0.00035844024
2.153038 -6.2709718 1.7542 65280 -0.037620831 -0.021089045 -0.99906951 0.0001978854
2.2523446 -6.2636757 1.752975 65280 -0.019802257 -0.025281327 -0.99948424 5.2212286e-05
2.3360338 -6.2525291 1.7501001 65280 -0.010312909 -0.028036429 -0.99955368 3.4653433e-05
2.4466255 -6.27636 1.75184 65280 -0.0020979769 -0.028400805 -0.99959439 3.4610403e-05
2.5564942 -6.2279382 1.7486398 65280 0.0020579949 -0.026424589 -0.99964869 2.3513283e-05
2.6743786 -6.2644935 1.7527666 65280 -0.0069979182 -0.02234352 -0.99972588 8.2025996e-05
2.7382004 -6.2285695 1.7493668 65280 -0.0051966654 -0.02112703 -0.99976331 3.8424914e-05
2.8239281 -6.2421207 1.7479 65280 -0.0050678328 -0.021831766 -0.99974883 6.9284593e-05
2.9543197 -6.2628822 1.749975 65280 0.0028648656 -0.024115574 -0.99970508 9.4142204e-05
3.0340202 -6.2596779 1.75055 65280 0.0034923942 -0.024466643 -0.99969459 8.467774e-05
3.1054344 -6.2667708 1.7539001 65280 0.0059174802 -0.02007675 -0.99978095 5.8581973e-05
1.749917 -6.1672454 1.75685 65280 0.016015107 -0.030629914 -0.99940246 0.00060797995
1.9716204 -6.1564474 1.77075 65280 -0.009670062 -0.020306705 -0.99974704 0.00056801015
2.0611954 -6.1379285 1.75495 65280 -0.036212441 -0.016224209 -0.99921238 0.00034897553
2.1508846 -6.1678419 1.7533751 65280 -0.037324872 -0.020057332 -0.99910188 0.0002545717
2.230298 -6.1423502 1.74874 65280 -0.022133755 -0.023081264 -0.99948853 5.4755044e-05
2.3427718 -6.1693501 1.747425 65280 -0.012834399 -0.026367111 -0.99956989 6.0818827e-05
2.4513745 -6.1590257 1.7466999 65280 -0.0030798891 -0.027387952 -0.99962014 2.8549794e-05
2.5265887 -6.1244802 1.74635 65280 0.000755755 -0.028040184 -0.99960649 2.2878185e-06
2.6407204 -6.1458626 1.7486668 65280 -5.5952256e-05 -0.027671138 -0.9996171 3.8266182e-05
2.7552803 -6.1485262 1.74832 65280 -0.0032159386 -0.026377268 -0.9996469 5.4370648e-05
2.860157 -6.162488 1.7476499 65280 -0.0056572431 -0.026554959 -0.99963135 3.6802867e-05
2.9556894 -6.1526542 1.7462751 65280 8.1847531e-05 -0.025885215 -0.9996649 4.9553884e-05
3.0315008 -6.1516471 1.7450333 65280 0.0026285541 -0.022616681 -0.99974078 5.6213652e-05
-0.69090927 -6.0599604 1.751225 65280 0.97752655 0.0052809627 -0.21074609 0.027606377
0.69648963 -6.0627961 1.75186 65280 -0.97695667 0.092912935 -0.19215319 0.034255106
1.6791742 -6.0407152 1.7527001 65280 0.017469186 -0.019489113 -0.99965745 0.00068434572
1.7427015 -6.0231476 1.7390499 65280 0.027926896 -0.019022496 -0.99942899 0.00065186992
1.8089429 -6.053781 1.7505 65280 0.021651087 -0.025034925 -0.99945211 0.00071540213
1.9792242 -6.0353165 1.75555 65280 0.0093323048 -0.022307536 -0.99970764 0.00094263977
2.0604947 -6.0274816 1.7537001 65280 -0.024214447 -0.017990392 -0.99954492 0.00064829958
2.1384385 -6.0491843 1.7508167 65280 -0.041417301 -0.020090986 -0.99893993 0.00022021556
2.2526989 -6.0618896 1.747925 65280 -0.025648918 -0.020160282 -0.99946773 1.7314151e-05
2.3594494 -6.0639195 1.7448167 65280 -0.014587281 -0.023165643 -0.99962521 3.2761855e-05
2.4670434 -6.0411949 1.7432001 65280 -0.0039950907 -0.022643039 -0.99973565 3.6125097e-05
2.5572474 -6.0618329 1.7449501 65280 0.0012638266 -0.025051791 -0.99968541 5.4759883e-05
2.6470146 -6.0412307 1.7455 65280 0.0016846253 -0.022954835 -0.99973506 5.8606478e-05
2.7363422 -6.0488167 1.7436666 65280 -0.0026767969 -0.023051538 -0.99973071 3.0652071e-05
2.8586478 -6.0602736 1.74375 65280 -0.0025389658 -0.021981264 -0.99975514 5.5729917e-05
2.9545543 -6.0411882 1.7429 65280 0.0038609016 -0.020975452 -0.99977255 3.9349568e-05
1.6733291 -5.9306517 1.7502199 65280 -0.0034266813 -0.014636245 -0.99988705 0.00056745281
1.7718815 -5.9535885 1.7473999 65280 0.021554817 -0.021896888 -0.99952787 0.00076023187
1.8286448 -5.9620385 1.7500334 65280 0.02164368 -0.024419485 -0.99946749 0.00068955874
1.9463173 -5.9562006 1.7597601 65280 0.015757365 -0.014890775 -0.99976498 0.0011618468
2.053268 -5.9393244 1.75256 65280 -0.029277887 -0.020391311 -0.9993633 0.00070486579
2.156177 -5.9385691 1.74804 65280 -0.039519556 -0.014120605 -0.99911898 8.7247136e-05
2.2499399 -5.9569535 1.7458571 65280 -0.028063923 -0.01684786 -0.99946415 1.9122523e-05
2.3403118 -5.9543796 1.7435001 65280 -0.015914561 -0.01707349 -0.99972761 6.2446983e-05
2.4487808 -5.9368463 1.7417001 65280 -0.0054769027 -0.020059545 -0.99978381 4.8033759e-05
2.5565624 -5.9595461 1.743175 65280 0.00091751706 -0.018825496 -0.99982232 2.0438449e-05
2.6706722 -5.9604068 1.7408667 65280 0.00026689822 -0.020158002 -0.99979675 4.7002133e-05
2.7552662 -5.9509616 1.7423334 65280 -0.0028316656 -0.019078961 -0.99981397 3.5521913e-05
2.8525937 -5.9655709 1.7438999 65280 -0.0035488766 -0.019788586 -0.99979788 4.8484602e-05
2.9255455 -5.9548602 1.743 65280 -0.0034669666 -0.022965647 -0.99973023 9.1837886e-05
-0.68573201 -5.8110776 1.749225 65280 0.97023368 -0.0044060252 -0.24213029 0.029334808
0.69924361 -5.8840594 1.7385334 65280 -0.9835462 0.038342733 -0.1765407 0.042072892
0.70091486 -5.8972201 1.7877001 65280 -0.96664828 -0.03484764 -0.2537258 0.060519341
1.5800132 -5.8038635 1.7528 65280 -0.014925251 0.00055760681 -0.99988848 0.0003368505
1.6154053 -5.8508644 1.74825 65280 -0.014375495 -0.0023010341 -0.99989402 0.00036572211
1.7445248 -5.8470345 1.7430857 65280 0.022761228 -0.0030436146 -0.99973631 0.0007705621
1.8384786 -5.8287382 1.747475 65280 0.025822295 0.0020930984 -0.99966437 0.00061207893
1.9740288 -5.8435183 1.7596 65280 0.0061750896 -0.0048918114 -0.99996895 0.00079612969
2.0557857 -5.8473253 1.75105 65280 -0.028295787 -0.0040132646 -0.99959153 0.0005130996
2.1499183 -5.8278008 1.7469834 65280 -0.045146219 -0.012166132 -0.99890625 0.00010795667
2.252079 -5.8388357 1.74274 65280 -0.029235208 -0.017356608 -0.99942183 3.0541345e-05
2.3552978 -5.8562961 1.7410251 65280 -0.015554756 -0.018467713 -0.99970847 6.4369313e-05
2.4309013 -5.8348451 1.7398751 65280 -0.0067285262 -0.017372791 -0.99982643 5.9477901e-05
2.5413034 -5.8656168 1.742925 65280 -0.00050491467 -0.018902807 -0.99982119 1.7846096e-05
2.6451776 -5.8571153 1.7413834 65280 0.00048302877 -0.021533277 -0.99976808 4.6484518e-05
2.7454522 -5.8471136 1.7421999 65280 -0.0032895526 -0.023822604 -0.99971074 5.5966695e-05
2.8424363 -5.8638945 1.7410499 65280 -0.0047753304 -0.02445901 -0.99968952 9.8662713e-05
2.9091599 -5.871213 1.7417001 65280 -0.0041041002 -0.023144508 -0.99972367 5.8446214e-05
0.70269305 -5.7576003 1.7516999 65280 -0.99788576 0.024330132 -0.060266208 0.0081036855
1.581144 -5.7281551 1.7526666 65280 -0.0072291614 0.0049174749 -0.99996173 0.00033234505
1.6512655 -5.7713089 1.7455667 65280 -0.014952452 0.00063584087 -0.99988794 0.00032131089
1.744411 -5.7487087 1.7464833 65280 0.015067524 0.0052494747 -0.99987268 0.00059268792
1.8206643 -5.7213502 1.7460667 65280 0.027554613 0.0094894376 -0.99957526 0.00059870729
1.9601041 -5.7340674 1.7604666 65280 0.0028775407 0.002265722 -0.99999332 0.0011428614
2.0506132 -5.7461667 1.7494165 65280 -0.025287403 0.00073599612 -0.99967986 0.00084711134
2.1560388 -5.7396183 1.7445 65280 -0.047113024 -0.012521508 -0.99881107 0.00012875439
2.2585499 -5.7650733 1.743775 65280 -0.0294268 -0.013122222 -0.99948078 8.2717612e-05
2.3462951 -5.7520628 1.7395802 65280 -0.018244244 -0.016812734 -0.9996922 0.00010203988
2.4448166 -5.7486668 1.7382799 65280 -0.0066959145 -0.018933184 -0.99979836 8.1152102e-05
2.5437186 -5.7590003 1.73875 65280 -0.0018989521 -0.020781787 -0.9997822 3.4259439e-05
2.648313 -5.7465329 1.73988 65280 -0.0055101016 -0.024409011 -0.99968684 7.4081989e-05
2.7489805 -5.7620244 1.7377501 65280 -0.0026639665 -0.026068749 -0.99965656 5.3783504e-05
2.8397796 -5.7804427 1.7405332 65280 -0.0032435637 -0.023162816 -0.99972641 6.5539665e-05
-0.68140739 -5.6095686 1.7375001 65280 0.985026 -0.039153401 -0.16790117 0.025567597
0.70589793 -5.6040511 1.7993 65280 -0.96700478 -0.0073501822 -0.25465229 0.064626999
1.5710413 -5.6525235 1.75205 65280 -0.0095643681 0.011999243 -0.99988222 0.00034225598
1.6410685 -5.6453567 1.7422998 65280 -0.0071418351 0.0102392 -0.9999221 0.00036239202
1.7500407 -5.6351266 1.7453499 65280 0.024013797 0.010987603 -0.99965119 0.00065899576
1.8532177 -5.6440272 1.7491 65280 0.02695787 0.0095662642 -0.99959081 0.0006198003
1.9447818 -5.6273284 1.7585334 65280 -0.0025660249 0.0029917345 -0.99999225 0.0010263178
2.0639727 -5.6572394 1.7495834 65280 -0.045649827 -0.0078427661 -0.99892676 0.00047119983
2.1612918 -5.6531677 1.7450833 65280 -0.053386874 -0.0041095642 -0.9985655 0.0002100181
2.2514093 -5.6576228 1.7406001 65280 -0.031529352 -0.0076450328 -0.99947363 8.2753788e-05
2.3530133 -5.644053 1.736243 65280 -0.020787606 -0.010275941 -0.99973112 6.4966633e-05
2.4587023 -5.6491976 1.7382749 65280 -0.0084832786 -0.015261021 -0.99984759 8.1482169e-05
2.5411541 -5.6624084 1.73535 65280 -0.0060553877 -0.018745501 -0.99980593 5.0716408e-05
2.6439011 -5.6315317 1.73592 65280 -0.0065587843 -0.023352221 -0.99970579 0.00012157484
2.7478206 -5.651422 1.7346284 65280 -0.0066915541 -0.024829963 -0.99966925 8.7215885e-05
2.8122113 -5.675693 1.7316999 65280 -0.0036048663 -0.025538329 -0.99966729 6.7977649e-05
-0.67962217 -5.5954604 1.7874 65280 0.9630934 -0.0521455 -0.26406795 0.03721939
0.70483601 -5.5960617 1.742525 65280 -0.99370259 -0.030098654 -0.10793158 0.035425201
1.5616646 -5.5546494 1.7515167 65280 -0.0078295534 0.0039821933 -0.99996144 0.00033274447
1.6547711 -5.5596819 1.7484334 65280 -0.0083511313 0.0077136336 -0.99993539 0.00039777361
1.753978 -5.5373793 1.7484623 65280 0.020727918 0.013055255 -0.99969989 0.00055859901
1.8481556 -5.5478992 1.7558833 65280 0.018055722 0.0048503294 -0.99982524 0.00071391067
1.9592854 -5.554822 1.76278 65280 -0.0065462212 -0.0047462257 -0.99996728 0.00082493789
2.0600898 -5.5515404 1.7492201 65280 -0.04409647 -0.0043965266 -0.9990176 0.0004170282
2.1383486 -5.5535622 1.7451998 65280 -0.051031478 -0.00041546882 -0.99869692 0.00017165759
2.2428756 -5.5531754 1.7399714 65280 -0.035570417 -0.002236593 -0.99936467 1.6384936e-05
2.3530579 -5.5543761 1.7375799 65280 -0.025032908 -0.0068571074 -0.99966305 7.8850389e-05
2.447614 -5.5504251 1.7349167 65280 -0.015297973 -0.0080924667 -0.99985027 3.7275771e-05
2.5424309 -5.5516858 1.7345667 65280 -0.010101053 -0.014024207 -0.99985063 6.1630628e-05
2.6543238 -5.5380745 1.73455 65280 -0.011592724 -0.015302026 -0.99981576 4.4539185e-05
2.73665 -5.5465174 1.7316 65280 -0.0083867619 -0.020532895 -0.99975401 7.4410564e-05
-0.67676759 -5.406404 1.75374 65280 0.98079866 -0.013095909 -0.19458252 0.026316192
0.70849705 -5.4837031 1.7513 65280 -0.99106544 -0.031808041 -0.12952799 0.038774733
1.5476962 -5.4411106 1.7521443 65280 -0.010670541 0.004552085 -0.99993271 0.00030995038
1.6496381 -5.4476237 1.7474999 65280 -0.006966562 0.0036581506 -0.99996907 0.00045146007
1.7455734 -5.436172 1.7493501 65280 0.013223488 0.0046121753 -0.99990189 0.00068975583
1.8453263 -5.432466 1.75105 65280 0.0083501805 -0.014008817 -0.99986696 0.00053844665
1.9640297 -5.4539986 1.7567834 65280 -0.0077798814 -0.014324061 -0.99986708 0.00055755925
2.0583298 -5.4381723 1.74748 65280 -0.038362309 -0.0083961999 -0.99922866 0.00035291852
2.1491587 -5.4491382 1.7443857 65280 -0.045862459 -0.0020912262 -0.99894559 0.00019163491
2.2484179 -5.4451241 1.7409375 65280 -0.035567217 0.0049365992 -0.99935508 2.6212258e-05
2.3590653 -5.462781 1.7381201 65280 -0.026829403 -0.00041427911 -0.99963999 5.5280398e-05
2.4452446 -5.4574547 1.73525 65280 -0.020752236 -0.0036381828 -0.99977803 5.0459039e-05
2.5445459 -5.4454827 1.7349001 65280 -0.017424244 -0.0085572693 -0.99981153 3.9187555e-05
2.650913 -5.4541168 1.7312 65280 -0.01492012 -0.013866199 -0.99979258 5.1456205e-05
2.7016711 -5.453032 1.7331001 65280 -0.013004953 -0.014609382 -0.99980867 4.3511998e-05
0.70935434 -5.3363876 1.748775 65280 -0.99660963 0.029309168 -0.076878324 0.009816872
1.4580715 -5.3173542 1.7519 65280 -0.012903495 0.001959102 -0.99991482 0.00030609779
1.5442833 -5.360611 1.7550331 65280 -0.012784907 0.0054818969 -0.9999032 0.00033144484
1.6654636 -5.3846011 1.7553 65280 -0.0050059422 0.0053536436 -0.99997312 0.00039788784
1.7066613 -5.3626242 1.7455 65280 -0.00088392536 -0.0066889082 -0.99997729 0.00035060986
1.9970636 -5.3424158 1.749 65280 -0.017326204 -0.019094789 -0.99966753 0.00044662377
2.0526736 -5.3557348 1.7482201 65280 -0.026970835 -0.014849078 -0.99952596 0.00045856735
2.1455064 -5.3496518 1.7458751 65280 -0.038010161 -0.01061738 -0.99922091 0.00027307498
2.2493706 -5.3468575 1.7419001 65280 -0.035440236 0.0044848272 -0.99936175 2.0110532e-05
2.3361485 -5.3520999 1.7380285 65280 -0.032637253 0.0037255415 -0.99946034 7.4800788e-05
2.4322999 -5.3572674 1.73436 65280 -0.026105877 0.00089665852 -0.99965882 7.6563018e-05
2.554527 -5.3425956 1.7324625 65280 -0.021334829 -0.0070834262 -0.99974728 7.4014308e-05
2.6354527 -5.3537388 1.7308249 65280 -0.017005224 -0.0098706009 -0.99980676 5.4590218e-05
-0.67236942 -5.2253022 1.7412201 65280 0.98595864 -0.00089647493 -0.16698755 0.023670102
0.7123546 -5.2225347 1.7502 65280 -0.99802947 0.015557398 -0.060786784 0.010750578
1.4519928 -5.2460852 1.7512001 65280 -0.010799277 0.0049851635 -0.99992925 0.00029422832
1.5521911 -5.2604742 1.7482201 65280 -0.010751189 0.0048805652 -0.99993032 0.00031605046
1.6487392 -5.2579398 1.7472999 65280 -0.0059964433 -0.0042283349 -0.99997312 0.00029805748
1.741264 -5.2788382 1.7484601 65280 -0.0029950982 -0.01005059 -0.99994504 0.00030047607
1.8183928 -5.2622824 1.7444334 65280 -0.003046318 -0.0088443076 -0.99995619 0.00033419437
1.9535379 -5.285677 1.7483251 65280 -0.009870735 -0.024683785 -0.9996466 0.00038760976
2.0543768 -5.2565851 1.7497751 65280 -0.02567203 -0.018968794 -0.99949044 0.00037891229
2.1556571 -5.2888417 1.7475667 65280 -0.033586305 -0.003150624 -0.99943084 0.00011549165
2.2654486 -5.2815723 1.7421999 65280 -0.033890355 0.0060981489 -0.99940693 2.2085847e-05
2.3503718 -5.2709637 1.738775 65280 -0.032311521 0.004990547 -0.99946541 6.419079e-05
2.4542005 -5.2766809 1.7341801 65280 -0.027855139 -0.00055525964 -0.99961179 6.3609223e-05
2.5676908 -5.2511215 1.7313251 65280 -0.02184738 -0.0048995605 -0.99974936 6.2476829e-05
0.71434188 -5.1005764 1.7701499 65280 -0.9965567 0.046990443 -0.068312883 0.013081987
1.654708 -5.199439 1.7558 65280 -0.0079487842 0.00077011343 -0.99996805 0.0002091632
1.9153526 -5.1872883 1.7489001 65280 -0.010379319 -0.013583452 -0.99985379 0.00027092328
-0.66654432 -5.0476723 1.7458799 65280 0.97915769 -0.015030701 -0.20254467 0.026921593
0.71407664 -5.0995173 1.7296 65280 -0.99763709 0.025592236 -0.063760303 0.011878501
-0.66565526 -4.9018512 1.7402 65280 0.98730147 -0.0050237877 -0.1587781 0.023608152
0.71655947 -4.9871979 1.7587601 65280 -0.99638635 -0.003412484 -0.084867842 0.015220671
-0.66442978 -4.8929739 1.761425 65280 0.97823191 -0.060955748 -0.19836019 0.030194465
0.71759731 -4.8781953 1.75404 65280 -0.99700058 0.030151365 -0.07127998 0.010306916
-0.66022068 -4.7420974 1.7501167 65280 0.98505074 -0.044377439 -0.16645017 0.021881046
0.71970934 -4.7660394 1.7509832 65280 -0.99515051 0.0063212831 -0.098160647 0.016215306
-0.65833592 -4.6013288 1.7854 65280 0.98138762 0.029097812 -0.18981993 0.030568713
0.7212373 -4.6761003 1.75446 65280 -0.99595779 0.035453767 -0.082529441 0.011794677
-0.65762299 -4.5956635 1.736625 65280 0.98803395 -0.036561463 -0.14984037 0.02314144
0.7232793 -4.5728564 1.7512335 65280 -0.99676436 0.018197788 -0.078292176 0.011803265
-0.65752977 -4.4917254 1.74755 65280 0.98949623 -0.0052565131 -0.14446293 0.021291433
0.72612029 -4.4701056 1.7597001 65280 -0.99429017 -0.0074401945 -0.10645009 0.016692016
-0.65322924 -4.3465405 1.74405 65280 0.98376715 -0.0087510552 -0.17923592 0.023579162
0.7277602 -4.3479176 1.741425 65280 -0.9946714 0.010330687 -0.10257676 0.013363536
-0.65106755 -4.2363577 1.74804 65280 0.98542076 0.0067550242 -0.17000104 0.024452154
0.72925401 -4.2340055 1.7443999 65280 -0.99238926 0.040498696 -0.11629051 0.020231165
-0.64917982 -4.1263876 1.7568001 65280 0.98047566 -0.0071955295 -0.19650882 0.028865064
0.7303791 -4.1491203 1.7488333 65280 -0.99808675 0.0037713342 -0.061713234 0.009357403
-1.1359415 -4.0471916 1.75805 65280 0.97437108 -0.2216724 -0.038241137 0.0036133293
-0.64747733 -4.0226364 1.75655 65280 0.9899559 -0.021001784 -0.13980766 0.020678045
0.73235536 -4.0522552 1.7563 65280 -0.98858434 0.00044836753 -0.15066813 0.024499265
-1.1114402 -3.9598489 1.76805 65280 0.97840935 -0.20594096 -0.017420545 0.0035500017
-0.64463139 -3.919899 1.7543502 65280 0.99049658 -0.02274734 -0.13564362 0.019707114
0.73448735 -3.9578142 1.7410445 65280 -0.99322748 0.048402105 -0.10562427 0.017718937
-0.64302576 -3.8241131 1.7532001 65280 0.98910379 -0.038934253 -0.14197834 0.020793976
0.73647553 -3.8479378 1.7486625 65280 -0.97974688 0.1290088 -0.15314297 0.045560874
6.1624045 -3.8010983 1.7418001 65280 0.059014618 0.98249793 -0.1766776 0.040309083
6.2593327 -3.8010821 1.7302999 65280 0.04206115 0.9967646 -0.068491444 0.0044520344
6.3279848 -3.8056417 1.743675 65280 0.017140344 0.99927062 -0.034123741 0.003105426
6.4390945 -3.8026054 1.74545 65280 -0.027672466 0.981332 -0.19031973 0.046771135
6.5487924 -3.8056664 1.7533876 65280 0.018367713 0.98004556 -0.19792292 0.037008628
6.6532321 -3.8062208 1.7567858 65280 0.066766098 0.94294214 -0.32619393 0.071341306
6.7561812 -3.8066161 1.7621833 65280 -0.029790951 0.94908273 -0.31361517 0.061264101
6.8293977 -3.807904 1.7402599 65280 -0.017314209 0.9601267 -0.27902856 0.063349076
6.9495945 -3.8131516 1.7511333 65280 -0.0824394 0.93587631 -0.34254825 0.067503288
7.057898 -3.8144386 1.7666665 65280 0.081753679 0.9018535 -0.4242366 0.078271382
7.1379166 -3.8151014 1.7445666 65280 -0.0078561008 0.97469491 -0.22340134 0.041347019
7.2513275 -3.8157933 1.7485126 65280 0.022652289 0.9304533 -0.36570966 0.079974644
7.360415 -3.8212802 1.7579333 65280 -0.011213719 0.93933266 -0.34282419 0.070009805
7.4616613 -3.8233762 1.753 65280 0.01398094 0.95514542 -0.29580709 0.059470329
7.5592809 -3.8259091 1.7511249 65280 -0.045462769 0.95500034 -0.2930997 0.066816948
7.6597705 -3.8255785 1.7591333 65280 -0.25745338 0.88339931 -0.39156547 0.099399313
7.7391486 -3.8230989 1.738425 65280 -0.55488968 0.82546037 -0.10350212 0.082700036
-0.64081985 -3.7338674 1.7470714 65280 0.98954737 -0.016963659 -0.14320646 0.019819312
0.7357949 -3.7541008 1.7428555 65280 -0.9176085 0.37874445 -0.12061164 0.068172455
1.2634213 -3.70011 1.7114 65280 0.014927261 0.99975449 -0.016376888 4.532309e-05
1.3692946 -3.7011504 1.7466501 65280 0.01701184 0.99728489 -0.071647845 0.0051899035
1.4490211 -3.7016194 1.7421345 65280 0.012916094 0.9979555 -0.062593825 0.0052624871
1.545827 -3.7026055 1.7479923 65280 -0.00054432091 0.99278611 -0.11989754 0.010601385
1.6499639 -3.7039869 1.7492683 65280 0.0013515524 0.99173224 -0.12831749 0.0095070703
1.747207 -3.7060068 1.7498777 65280 0.011039803 0.97986645 -0.19934867 0.023934223
1.8451575 -3.7096379 1.7495 65280 -0.020650404 0.97367406 -0.22700758 0.037012968
1.9451965 -3.7097974 1.7516485 65280 -0.0092521561 0.95742863 -0.28852156 0.050974082
2.0492766 -3.7120743 1.7508253 65280 0.034722049 0.97167945 -0.23373772 0.033551257
2.1528382 -3.7143321 1.7508063 65280 0.024838014 0.9844808 -0.1737254 0.013511972
2.2511055 -3.7172475 1.7497506 65280 0.038498472 0.98555577 -0.16491736 0.014980137
2.3486586 -3.7193699 1.7505929 65280 -0.038960133 0.96815425 -0.24730445 0.043816298
2.4468167 -3.7201164 1.7506801 65280 -0.01775901 0.95871127 -0.28382614 0.04553654
2.5493641 -3.7222793 1.7495344 65280 0.045392364 0.97635102 -0.21137238 0.018981576
2.6519759 -3.7241833 1.7483673 65280 0.0026559466 0.9856227 -0.16894054 0.014925356
2.7410896 -3.7257612 1.7490704 65280 0.0099801729 0.9799543 -0.19897227 0.021039695
2.8478413 -3.7265489 1.7504822 65280 0.018628217 0.98016953 -0.19728321 0.023196207
2.9457967 -3.7303617 1.751341 65280 0.041137658 0.98200846 -0.18430178 0.022717595
3.0485251 -3.7336276 1.7483345 65280 0.0011136394 0.98146081 -0.19165955 0.01883327
3.1502259 -3.73488 1.7507911 65280 0.0080913547 0.98182106 -0.18963623 0.018599072
3.2456608 -3.7380116 1.7476856 65280 0.0099472664 0.98415601 -0.17702577 0.018350605
3.3507299 -3.7395527 1.7498584 65280 0.010362106 0.97971672 -0.20011918 0.019618627
3.457793 -3.7421694 1.7462 65280 0.041991688 0.98113692 -0.18869849 0.020058667
3.5528414 -3.745702 1.7479945 65280 0.0058826706 0.98039335 -0.19696259 0.022731397
3.6462612 -3.7471919 1.749953 65280 0.024803663 0.98174495 -0.18857783 0.025058439
3.7450626 -3.7481792 1.7528747 65280 0.02673508 0.98123306 -0.19096319 0.024801252
3.8550603 -3.7531185 1.7469053 65280 0.054737233 0.98023021 -0.19013831 0.023976907
3.9513736 -3.7529535 1.75098 65280 -0.086816385 0.95256448 -0.29169124 0.040154029
4.0081062 -3.7527442 1.74905 65280 -0.019327465 0.93430692 -0.35594541 0.05949882
4.2509794 -3.7622955 1.749175 65280 0.017850881 0.95479339 -0.29673353 0.053900059
4.3566628 -3.7584949 1.7522446 65280 0.045375943 0.9781248 -0.20300941 0.025032854
4.4610457 -3.7580287 1.7478429 65280 -0.0059248437 0.97781867 -0.20936957 0.02547043
4.5544238 -3.7593126 1.7542546 65280 0.003838324 0.97413296 -0.22594307 0.027778942
4.643733 -3.7626746 1.7489537 65280 -0.0030219096 0.97538114 -0.22050539 0.027419569
4.7503219 -3.7639835 1.7477584 65280 0.028360281 0.97838473 -0.20483892 0.028585639
4.8427463 -3.766664 1.7466909 65280 -0.00085877348 0.97576779 -0.21880712 0.026831748
4.9496827 -3.7693856 1.74535 65280 -0.005115205 0.97304207 -0.2305709 0.031605534
5.051784 -3.7731466 1.7481332 65280 0.012807097 0.97202867 -0.23451278 0.036879148
5.1455269 -3.7763329 1.7483273 65280 0.0055045481 0.96919423 -0.2462361 0.039120823
5.255157 -3.7774763 1.7482461 65280 0.00053305924 0.96652585 -0.25656864 0.040061899
5.3576851 -3.7776833 1.7484375 65280 0.056869343 0.95751047 -0.28273588 0.044063292
5.4433222 -3.7816603 1.7511251 65280 0.017007818 0.95913708 -0.28243032 0.044838823
5.5506306 -3.7845421 1.7483 65280 0.021061586 0.9767437 -0.21337302 0.032489769
5.6594915 -3.7856762 1.7514249 65280 0.05056015 0.95705259 -0.28547177 0.039538831
5.7521973 -3.7891226 1.7587875 65280 0.0012248647 0.9618448 -0.27359292 0.044530604
5.8368936 -3.788568 1.7493143 65280 -0.026056241 0.95263803 -0.30298838 0.046573296
5.9342985 -3.7911568 1.7499126 65280 0.015838265 0.94947606 -0.31343952 0.051903903
6.0446181 -3.7935269 1.7560301 65280 0.039251167 0.95826375 -0.28317806 0.045759849
6.1590095 -3.7953465 1.7486143 65280 0.052054364 0.97921336 -0.19603959 0.040427648
6.2433314 -3.7989175 1.745725 65280 0.041322928 0.99680167 -0.068401426 0.0043498366
6.3500485 -3.7961073 1.7593501 65280 -0.018640272 0.98361915 -0.17929277 0.040438052
6.4327869 -3.7989144 1.78055 65280 -0.0079290625 0.95465118 -0.29762104 0.068207398
7.7747998 -3.7634382 1.7536778 65280 -0.85339433 0.47085297 -0.22364153 0.08694075
-2.2480569 -3.6583049 1.7464366 65280 0.010715594 0.97481632 -0.22275192 0.05800404
-2.1534567 -3.6604648 1.7480332 65280 0.079834029 0.98660028 -0.14228998 0.019341987
-2.0539639 -3.6648133 1.7501113 65280 0.031494278 0.99149114 -0.12630686 0.016436158
-1.9499726 -3.6660855 1.7493213 65280 0.013781564 0.99170685 -0.1277792 0.016823877
-1.8460366 -3.6679771 1.7516106 65280 -0.0034832275 0.98282087 -0.18452922 0.028804602
-1.7495943 -3.6709018 1.7497779 65280 0.03126077 0.99176216 -0.12421983 0.015821554
-1.6483421 -3.6708837 1.7509073 65280 0.038254648 0.98805827 -0.14925642 0.022753337
-1.5500757 -3.6730461 1.7542861 65280 -0.097380564 0.97895801 -0.17932704 0.033863496
-1.4919515 -3.6763875 1.7479924 65280 -0.025435016 0.97205573 -0.23336816 0.04561054
-0.63995433 -3.6466334 1.7583333 65280 0.98436904 -0.026621552 -0.17409453 0.026622428
0.76940489 -3.6876233 1.7501127 65280 -0.41494805 0.88024575 -0.23018594 0.14805986
0.85061681 -3.6890011 1.7490488 65280 -0.39775151 0.89889538 -0.18379565 0.11036702
0.94897825 -3.691829 1.7495273 65280 -0.010320872 0.98721439 -0.15906322 0.02623217
1.0466008 -3.6929007 1.7511067 65280 0.015908714 0.98410064 -0.1768977 0.026463527
1.147032 -3.6948631 1.7499229 65280 0.024906714 0.99471927 -0.099565022 0.0052886098
1.247856 -3.6975012 1.7544045 65280 0.028931849 0.99353814 -0.10974886 0.0077671763
1.3406018 -3.6980131 1.7510812 65280 0.01625728 0.99804401 -0.060363777 0.0057608918
1.4522312 -3.6986527 1.7622284 65280 0.021076491 0.99106938 -0.13167092 0.011169514
1.5710335 -3.6994102 1.74765 65280 0.011876639 0.99518549 -0.097287446 0.0089570386
7.7788458 -3.6644025 1.7511888 65280 -0.93873066 0.10922756 -0.32688537 0.075097933
-0.63900936 -3.5722034 1.7462571 65280 0.98777568 -0.036991268 -0.1514293 0.025087584
7.7802868 -3.5623796 1.7523091 65280 -0.94588798 0.026410263 -0.32341665 0.066281587
-0.63623434 -3.4455485 1.750077 65280 0.9851799 -0.031665165 -0.16857612 0.023029961
7.7794237 -3.4529409 1.7466155 65280 -0.97086018 0.042788886 -0.23579577 0.046799008
-0.63369888 -3.3366301 1.7579001 65280 0.9899385 0.0097375717 -0.14116251 0.022400131
7.7795944 -3.3326895 1.7495999 65280 -0.94214994 0.0098384041 -0.33504722 0.078558058
-0.63206017 -3.2506216 1.7415726 65280 0.99019504 -0.018541034 -0.13845614 0.020067068
7.7814488 -3.2389383 1.75 65280 -0.97512174 -0.018411694 -0.22090395 0.048080239
-0.62936026 -3.1564977 1.7552091 65280 0.96834785 -0.10084547 -0.22832574 0.045786735
7.7870598 -3.1456237 1.7461399 65280 -0.94480199 0.061780475 -0.32176459 0.065831915
-0.62797725 -3.0451782 1.7512867 65280 0.97537214 -0.028445084 -0.21872371 0.036871899
7.7920647 -3.0564322 1.74379 65280 -0.94216835 0.024530532 -0.334241 0.079170875
-0.62493622 -2.9467587 1.7469801 65280 0.98000795 -0.056725543 -0.19070017 0.026949229
7.7915072 -2.9539773 1.7467818 65280 -0.94501436 0.037719615 -0.32484639 0.072813593
-0.62309927 -2.8522897 1.747247 65280 0.97729641 -0.042615131 -0.20754671 0.025672378
7.7945004 -2.847487 1.7525847 65280 -0.94764924 0.030110644 -0.31789064 0.066785276
-0.62112761 -2.7580755 1.7541564 65280 0.98081142 -0.0130433 -0.19452189 0.02132911
7.7948675 -2.742028 1.7509501 65280 -0.93211484 0.051965553 -0.35841545 0.065521963
-0.61935252 -2.6546972 1.749159 65280 0.98404777 -0.0061064647 -0.17779957 0.021372864
7.7967887 -2.6477349 1.7497333 65280 -0.92261547 0.082876436 -0.37671223 0.085355029
-0.61636013 -2.5471473 1.7493093 65280 0.97955012 -0.061482571 -0.19157618 0.022855042
7.7979703 -2.557127 1.7423779 65280 -0.97666758 0.077894568 -0.20013206 0.055586912
7.8004441 -2.556366 1.7945 65280 -0.92685312 -0.029337484 -0.37427607 0.082927451
-0.61440784 -2.4509647 1.7501749 65280 0.97177017 -0.042524125 -0.23206551 0.04708346
7.7998619 -2.4339578 1.7332 65280 -0.99856037 0.010247528 -0.052651517 0.0024832559
7.8016529 -2.4514756 1.7510251 65280 -0.97606456 0.032383624 -0.21505642 0.066123396
-0.61183822 -2.3541486 1.7478708 65280 0.97431284 -0.0031396018 -0.2251769 0.038160328
7.7981644 -2.3146179 1.7902 65280 -0.97318327 0.10000804 -0.20715365 0.090822965
7.8021164 -2.3490214 1.7422301 65280 -0.97173673 0.031166339 -0.23400074 0.082400791
-0.61159319 -2.2543356 1.7505575 65280 0.98046792 -0.0060074297 -0.19658735 0.038562823
7.7987614 -2.284251 1.786 65280 -0.99406594 0.037855785 -0.10197873 0.024435343
7.8028665 -2.250381 1.74867 65280 -0.96642655 0.20989335 -0.14820424 0.10639188
8.7691917 -2.2002864 1.7142 65280 -0.001162136 0.93157589 -0.363545 0.088610306
-0.6088596 -2.1476018 1.7462484 65280 0.98159081 0.0089200186 -0.19078799 0.036424421
7.8318253 -2.1887202 1.7508167 65280 -0.76026499 0.39069882 -0.51899105 0.165756
7.9710689 -2.1842301 1.7556 65280 -0.32808241 0.85991377 -0.3910374 0.09381827
8.0925322 -2.1858103 1.7602333 65280 0.10568299 0.89507329 -0.43321458 0.082775712
8.2210741 -2.1876526 1.7414666 65280 0.047457058 0.94087529 -0.33541259 0.051324017
8.3469667 -2.1906395 1.7541666 65280 -0.0373482 0.88395977 -0.46606895 0.069375962
8.4759684 -2.1924095 1.7486 65280 -0.10469129 0.88609904 -0.4515177 0.068145037
8.6114845 -2.1957295 1.7555 65280 0.00088325044 0.8983568 -0.43926558 0.083748586
8.7594376 -2.1978927 1.7615 65280 0.094313525 0.84779805 -0.52186543 0.10495164
9.0009966 -2.1905842 1.7246 65280 -0.60963821 0.70607996 -0.36026707 0.14000992
-0.60658824 -2.0472133 1.7504382 65280 0.97959924 -0.02379946 -0.19954675 0.038365565
9.0110931 -2.0339222 1.7548751 65280 -0.77226275 0.14352582 -0.61887848 0.15004162
-0.60600048 -1.9529879 1.7493999 65280 0.97523135 0.029114105 -0.21926285 0.037919465
9.0161371 -1.9599862 1.7406445 65280 -0.926247 0.20929945 -0.31346467 0.12058044
-0.6038186 -1.8505862 1.748794 65280 0.97064459 -0.0081543168 -0.2403798 0.038637798
-0.59962016 -1.8512275 1.768 65280 0.86953622 -0.071282752 -0.48869777 0.068012677
9.0188694 -1.8614523 1.7508777 65280 -0.97095972 0.046614867 -0.23465802 0.050940171
-0.60260862 -1.7600229 1.7455542 65280 0.97462714 -0.051561959 -0.21781488 0.041456293
-0.599226 -1.72247 1.7595499 65280 0.95176655 -0.055335686 -0.30179191 0.036720112
9.0196896 -1.761072 1.754711 65280 -0.95249856 -0.0095730433 -0.30439273 0.069533348
-0.60116231 -1.6557248 1.7458783 65280 0.97037333 -0.080484159 -0.22781092 0.038370956
-0.59861422 -1.6357229 1.7570589 65280 0.9317748 -0.10070981 -0.34878826 0.050848264
9.0206118 -1.6634033 1.7518556 65280 -0.94504589 -0.062841229 -0.32084155 0.07584583
-0.60100108 -1.5835857 1.736925 65280 0.9917506 -0.042520821 -0.12092461 0.0048217452
-0.59742779 -1.5465477 1.7543668 65280 0.97373968 -0.026904756 -0.22606884 0.034040261
9.0236712 -1.5654372 1.7534223 65280 -0.87438053 -0.0067359074 -0.485194 0.099393681
-0.59504431 -1.4511168 1.7481277 65280 0.94973928 -0.080174915 -0.30260074 0.038696829
8.2993937 -1.4119716 1.7992001 65280 -0.0090789534 -0.016627707 -0.99982059 0.00041194685
9.0252886 -1.4511763 1.7459084 65280 -0.82422692 0.021458402 -0.565853 0.092594735
-0.59266347 -1.3497174 1.7495612 65280 0.94266474 -0.025341446 -0.3327778 0.040854629
9.0294065 -1.3380514 1.7509298 65280 -0.90935326 0.096119553 -0.40476879 0.083724454
-0.59096164 -1.2492921 1.7495447 65280 0.94392359 -0.026648227 -0.32908678 0.037792124
9.0320692 -1.2409811 1.7477334 65280 -0.83759558 0.010252296 -0.54619455 0.096704297
-15.316159 -1.157833 1.7480665 65280 0.99991536 0.0084026139 0.0099335015 0.0020749166
-0.58852381 -1.149825 1.7493584 65280 0.95030624 -0.00083618617 -0.31131545 0.03832344
9.0332441 -1.1446164 1.740111 65280 -0.93465585 -0.030547805 -0.3542392 0.074642457
-15.320842 -1.0327883 1.7608666 65280 0.9998849 -0.0090506161 0.012177263 0
-0.58579189 -1.0495654 1.7477148 65280 0.94984472 -0.072026841 -0.30431411 0.036703177
8.3687859 -1.0421636 1.7963333 65280 -0.011277382 -0.011335516 -0.99987209 0.00060745201
9.0326605 -1.0488949 1.7370334 65280 -0.92999262 0.026129674 -0.36664826 0.068150699
-15.319002 -0.93400955 1.755425 65280 0.9996587 -0.020221978 0.016541826 0.0006098228
-0.58381033 -0.94993335 1.750453 65280 0.95648295 -0.13263188 -0.25990212 0.036529183
9.0333672 -0.95169711 1.7498223 65280 -0.76196307 -0.038401686 -0.64648092 0.089511342
-15.310423 -0.82706773 1.7500751 65280 0.99912596 -0.036912993 0.019614007 0
-0.56729078 -0.87496895 1.7387726 65280 0.93446851 -0.23732236 -0.26541799 0.041065756
5.3883328 -0.88026714 1.7986 65280 -0.058406554 0.00073057821 -0.99829257 0.0012001515
8.3719854 -0.82550383 1.7979 65280 -0.022957686 -0.0006085239 -0.99973631 0.00051657128
8.8387527 -0.80797076 1.7996 65280 -0.40799084 -0.0068384819 -0.91296041 0.04624651
9.0354252 -0.857171 1.7436222 65280 -0.8524375 -0.014839858 -0.52261847 0.092057094
-15.310125 -0.74358392 1.75915 65280 0.99900502 -0.041435324 0.016492473 0
-1.2795204 -0.77660555 1.7946 65280 -0.014839377 -0.67774796 -0.73514462 0.035567138
8.356163 -0.77800035 1.7978001 65280 -0.0093507813 -0.0026208053 -0.99995291 0.00058276264
8.4344234 -0.71105075 1.7908 65280 -0.0028597373 -0.0051122494 -0.99998283 0.0012114914
8.871913 -0.71700382 1.7976 65280 -0.34699124 -0.074233674 -0.93492585 0.045024112
8.9301682 -0.75230575 1.7976 65280 -0.47919044 -0.060082734 -0.87565207 0.057620563
9.0368328 -0.758654 1.7542 65280 -0.7157315 0.019878503 -0.69809258 0.090737998
-15.30514 -0.66541922 1.748525 65280 0.99932528 -0.032050449 0.017937271 0.00047059348
-0.57722366 -0.61684662 1.7746965 65280 0.92495245 0.36147934 -0.11745542 0.042084966
8.4196501 -0.62166166 1.7984 65280 -0.0029683879 -0.010460366 -0.99994081 0.0013368665
8.6169052 -0.6051178 1.7934999 65280 0.0038781413 -0.019850075 -0.99979544 0.0010827598
8.8750343 -0.65481091 1.7977999 65280 -0.21618 -0.035327662 -0.97571415 0.029251162
9.040246 -0.65141129 1.7511538 65280 -0.8116399 -0.020810172 -0.58378738 0.073744975
-15.302936 -0.55087042 1.7459999 65280 0.99970281 -0.02097814 0.012411954 0.00034049529
-15.299115 -0.58515358 1.7642 65280 0.99958241 -0.025055712 0.014393394 0
-6.3241715 -0.58121347 1.7458601 65280 0.19841787 -0.97980016 -0.024938893 0.0033423526
-6.2134852 -0.57312715 1.76835 65280 0.19213685 -0.98099893 -0.026915336 0.0037227685
-6.1555223 -0.56772149 1.7753999 65280 0.17127049 -0.98435503 -0.041370217 0.0068034087
-5.8699546 -0.54123974 1.74965 65280 0.06983906 -0.97668159 -0.20301625 0.015571618
-0.57762426 -0.54771197 1.7518897 65280 0.91618603 0.32920691 -0.22852981 0.06057293
7.2199531 -0.50832629 1.7970001 65280 -0.0059282146 -0.014231835 -0.99988121 0.0001508904
7.7686114 -0.51903105 1.7995 65280 -0.012079255 -0.013780852 -0.99983203 0.00014635986
8.4576149 -0.54882026 1.79655 65280 0.0001937562 -0.024994161 -0.99968761 0.0012151323
8.5873375 -0.51110625 1.7977 65280 -0.0027039717 -0.04108768 -0.99915189 0.00082719501
8.7391233 -0.52000594 1.7974 65280 -0.021336418 -0.033910416 -0.99919713 0.00066432689
8.8886032 -0.56091326 1.7966 65280 -0.2788941 -0.029265909 -0.95987582 0.043533865
8.9064007 -0.50113916 1.7947 65280 -0.26712361 -0.038251482 -0.96290284 0.043384857
9.0420418 -0.53905439 1.7596002 65280 -0.81916982 -0.0024601561 -0.57354581 0.087682627
-15.30306 -0.44532457 1.765 65280 0.99990088 -0.0074832691 0.011921392 0.0034548296
-15.298983 -0.47838259 1.7118 65280 0.99982888 -0.014659536 0.011285554 0
-0.60583043 -0.44880193 1.7411897 65280 0.97212034 0.10051808 -0.21184468 0.046594262
-0.58490425 -0.46687663 1.7566646 65280 0.93352091 0.20575745 -0.29360279 0.061262913
7.5941105 -0.4003861 1.7991 65280 -0.0059849266 -0.019388389 -0.99979413 0.00010372727
7.8225508 -0.41225648 1.7953 65280 -0.013558915 -0.015259705 -0.99979162 0.00015416354
7.9377604 -0.43280482 1.7981 65280 -0.0053297905 -0.015452152 -0.99986637 0.00012087536
8.0553312 -0.45264396 1.7982999 65280 -0.0034881649 -0.019138411 -0.99981081 7.437537e-05
8.1818771 -0.46102762 1.799 65280 0.0011936636 -0.025605015 -0.99967146 7.2283474e-05
8.2364168 -0.41949284 1.7973499 65280 -0.0034892354 -0.027840061 -0.99960631 7.4947813e-05
8.3400183 -0.45378655 1.7972249 65280 -0.013695899 -0.02736178 -0.99953175 0.00010554009
8.4549103 -0.47613502 1.7968 65280 -0.0014086728 -0.034822386 -0.99939257 0.0007118014
8.5398169 -0.45013079 1.795 65280 -0.0017709829 -0.03207754 -0.99948382 0.00075578562
8.666501 -0.44092166 1.7957499 65280 -0.007605331 -0.042014863 -0.99908811 0.00066888874
8.7490721 -0.49243808 1.7951 65280 -0.018523365 -0.037422776 -0.99912786 0.00063481176
8.8133984 -0.44825542 1.7939 65280 -0.049715552 -0.034473866 -0.99816829 0.0037203943
8.9540462 -0.40446472 1.7898999 65280 -0.3548235 0.015261379 -0.93480873 0.06283816
9.0478058 -0.44283736 1.7426 65280 -0.90323561 0.0015939715 -0.42914206 0.053696822
-15.30119 -0.36996031 1.7505 65280 0.99976051 -0.017707141 0.012863091 0
-15.299767 -0.32052541 1.7284501 65280 0.99948257 -0.026658181 0.017999543 0.0010037243
-0.60478944 -0.3649776 1.7454313 65280 0.98177421 -0.064668477 -0.17871033 0.050567035
-0.5927828 -0.32264614 1.7488968 65280 0.97567827 -0.057126008 -0.21163301 0.046616282
7.4923134 -0.34316897 1.7992001 65280 -0.0062610349 -0.018592605 -0.99980754 0.0001238672
7.6033735 -0.37483072 1.7984 65280 -0.0028943678 -0.022229103 -0.99974871 0.00010660829
7.7258205 -0.35361481 1.7979 65280 -0.0049291998 -0.015436112 -0.99986869 0.00016457129
7.8667426 -0.34113169 1.7982668 65280 -0.009665695 -0.014244583 -0.99985182 0.00010322152
7.9723053 -0.36343893 1.7971001 65280 -0.0077726771 -0.016833795 -0.9998281 0.00010119299
8.0213938 -0.30946302 1.7974 65280 -0.0029568251 -0.018425386 -0.99982589 9.0427689e-05
8.1191263 -0.35569018 1.7975 65280 -0.0041077104 -0.022340704 -0.99974197 3.0017631e-05
8.2561197 -0.34668717 1.7964667 65280 -0.0063494146 -0.027674122 -0.99959683 4.9455146e-05
8.3782625 -0.36617708 1.796 65280 -0.011396673 -0.027435005 -0.99955857 9.2957147e-05
8.4227428 -0.32461905 1.7943 65280 -0.010550071 -0.026547514 -0.99959189 9.7633296e-05
8.5218534 -0.35761809 1.7917 65280 -0.0023710055 -0.035653971 -0.9993614 0.00042400992
8.6441526 -0.35271159 1.7931 65280 -0.010253903 -0.039600685 -0.99916297 0.00042377785
8.7335167 -0.32099688 1.7917 65280 -0.0063820882 -0.027785797 -0.99959356 0.0001371961
8.821207 -0.36984649 1.7899666 65280 -0.062340103 -0.026763309 -0.99769604 0.0047776923
8.9120703 -0.31195974 1.7908 65280 -0.306869 0.014406653 -0.95164263 0.055077963
9.0414524 -0.35151771 1.7552201 65280 -0.86447626 0.024735013 -0.5020647 0.080675527
-15.301062 -0.26238322 1.7493 65280 0.99940854 -0.030619465 0.015654279 0
-15.294905 -0.2104466 1.76995 65280 0.99962902 -0.023025518 0.014546354 0.00034775824
-0.57666343 -0.24694657 1.7481575 65280 0.93812364 -0.12494969 -0.32297292 0.064429633
-0.027665829 -0.22154807 1.7465664 65280 -0.7837435 -0.42423129 -0.45362318 0.20585249
0.010815274 -0.21713261 1.7501332 65280 0.91774476 -0.11448448 -0.38031295 0.15475619
5.7554846 -0.26299214 1.7976 65280 -0.016820414 -0.02060706 -0.99964619 0.00031581041
6.576488 -0.20941186 1.7997 65280 -0.016287407 -0.024931962 -0.99955648 0.00016775544
6.6299963 -0.23429108 1.7996 65280 -0.014516475 -0.024228087 -0.99960113 0.00020865299
6.7105322 -0.23698354 1.7962 65280 -0.0074736727 -0.027537879 -0.99959284 0.00013329435
6.851347 -0.24174802 1.7985667 65280 -0.0055635418 -0.024824364 -0.99967641 0.00013948992
6.981216 -0.27042174 1.7977999 65280 0.00032892791 -0.024195865 -0.99970716 8.503344e-05
7.0539675 -0.22403073 1.7979 65280 -0.0014583312 -0.020859271 -0.99978131 0.0001065784
7.1367435 -0.22560334 1.7997 65280 -0.0055553373 -0.021586098 -0.99975151 0.00012413172
7.2438025 -0.22916818 1.7971667 65280 0.00043514482 -0.020818599 -0.99978316 7.3420808e-05
7.3346024 -0.25830507 1.7986 65280 -0.0029227503 -0.019122554 -0.9998129 9.0744121e-05
7.4705424 -0.23609264 1.7978001 65280 -0.0064078635 -0.017639529 -0.99982387 6.6511355e-05
7.5610461 -0.25631681 1.7981334 65280 -0.0062384289 -0.013782262 -0.9998855 0.00011605993
7.6054564 -0.24083781 1.7969 65280 -0.0028133341 -0.016559895 -0.99985892 8.0351296e-05
7.7202091 -0.22989559 1.7975 65280 -0.0029802097 -0.013187773 -0.99990863 7.6356817e-05
7.8276982 -0.24697216 1.7967334 65280 -0.0084846346 -0.014415461 -0.99986005 9.944231e-05
7.9497085 -0.25069985 1.7954 65280 -0.0075404369 -0.013520634 -0.99988014 6.3648775e-05
8.0788965 -0.25459394 1.7947334 65280 -0.0053577013 -0.017508322 -0.99983233 3.1785385e-05
8.1872187 -0.28727889 1.7953 65280 -0.006227639 -0.01989368 -0.99978274 3.4132725e-05
8.2233286 -0.23055761 1.7932 65280 -0.0090723205 -0.020188723 -0.99975508 3.5500783e-05
8.3552084 -0.2487464 1.7938001 65280 -0.010047521 -0.021258127 -0.99972361 3.3267723e-05
8.4743919 -0.26627827 1.79205 65280 -0.0081785964 -0.021600027 -0.99973315 4.0344016e-06
8.5053043 -0.23902047 1.791 65280 -0.007156698 -0.020811407 -0.99975777 2.1443206e-05
8.6467352 -0.24198548 1.7903 65280 -0.0058956221 -0.017653747 -0.99982679 2.1923894e-05
8.7894001 -0.2301892 1.7888 65280 -0.056290757 -0.016872693 -0.99827188 0.0038820191
8.8087568 -0.27761507 1.7891999 65280 -0.059544325 -0.021653086 -0.99799079 0.0035000006
8.975338 -0.25087523 1.7926668 65280 -0.31256267 -0.040654827 -0.94902676 0.053353395
9.0488005 -0.25282764 1.741511 65280 -0.87221938 -0.008010881 -0.48904932 0.075902216
-15.289623 -0.12974405 1.7460001 65280 0.99939567 -0.026544727 0.022442522 0
-0.56986034 -0.14925477 1.7492355 65280 0.92827624 -0.14025293 -0.34443036 0.051600903
-0.04256754 -0.14470722 1.7517636 65280 -0.95146877 -0.17624196 -0.25228143 0.1510895
0.015511936 -0.14513218 1.762056 65280 0.94040447 -0.11674686 -0.31938946 0.16677779
6.0344152 -0.13041461 1.79865 65280 -0.0069421697 -0.021727238 -0.99973983 0.00010746494
6.2487526 -0.112957 1.7999001 65280 0.0044816984 -0.017782535 -0.9998318 0.00013039299
6.5877924 -0.11859226 1.7979 65280 -0.012842226 -0.010572505 -0.99986166 0.00014580377
6.6695838 -0.14219157 1.7989999 65280 -0.006127622 -0.010885722 -0.99992192 0.00016749738
6.7665939 -0.13198566 1.79845 65280 -0.0028426894 -0.011481533 -0.99993008 0.00011978496
6.8524384 -0.15742135 1.798 65280 -0.0026584852 -0.018441424 -0.99982637 7.8460966e-05
6.9589152 -0.13549542 1.7973499 65280 -0.0016040866 -0.017085373 -0.99985272 1.982404e-05
7.0559697 -0.16184878 1.798625 65280 -0.004973006 -0.022703359 -0.99972987 7.5083961e-05
7.163311 -0.15208673 1.798 65280 -0.0023681065 -0.015343232 -0.99987948 8.0606289e-05
7.2653284 -0.14056838 1.7952 65280 -0.0015016063 -0.019224137 -0.99981409 5.617255e-05
7.3951035 -0.1167959 1.7963001 65280 -0.00069617771 -0.018212074 -0.99983388 9.3490606e-05
7.4916687 -0.1447019 1.7954999 65280 -0.0027136407 -0.017340144 -0.99984598 9.0274101e-05
7.6200409 -0.14699864 1.7979749 65280 0.0012546716 -0.013227141 -0.99991167 4.8458642e-05
7.7352953 -0.14907479 1.79655 65280 -0.0054542478 -0.016276607 -0.99985266 7.2750037e-05
