# .PCD v0.7 - Point Cloud Data file format
VERSION 0.7
FIELDS x y z rgb normal_x normal_y normal_z curvature
SIZE 4 4 4 4 4 4 4 4
TYPE F F F U F F F F
COUNT 1 1 1 1 1 1 1 1
WIDTH 535
HEIGHT 1
VIEWPOINT 0 0 0 1 0 0 0
POINTS 535
DATA ascii
0.1569699 2.3604913 -0.94527298 8388736 0.014939283 0.0023793427 0.99988556 1.9153329e-05
0.17706482 2.2508287 -0.94436032 8388736 0.01183719 0.0096092988 0.99988383 2.5792602e-05
0.20249736 2.1619649 -0.94428587 8388736 0.0095241591 0.014744073 0.99984598 2.1774084e-05
0.23940606 2.0765781 -0.94409323 8388736 0.008007545 0.01874092 0.9997924 2.0383563e-05
0.25901139 1.9738454 -0.94177526 8388736 0.0061973967 0.022078758 0.99973708 1.2501966e-05
0.29159242 1.8743645 -0.938375 8388736 0.0065611782 0.017547522 0.99982458 3.8213399e-05
0.32499355 1.78459 -0.93667781 8388736 0.010132227 0.0021761979 0.9999463 0.00010788564
0.3466832 1.6832408 -0.9382146 8388736 0.018621836 -0.011701526 0.99975812 0.00013839574
0.38069764 1.5823902 -0.94270819 8388736 0.022141067 -0.023966538 0.99946755 5.8577487e-05
0.4106403 1.4843293 -0.94551468 8388736 0.018185902 -0.02921227 0.99940783 4.9690392e-05
0.4330759 1.3897232 -0.94626319 8388736 0.015016492 -0.028384518 0.99948436 2.1857779e-05
0.46599069 1.2964913 -0.95137435 8388736 0.014073819 -0.024746211 0.99959469 2.3864388e-05
0.48864874 1.2030991 -0.95361894 8388736 0.01616405 -0.022549318 0.99961501 2.2072463e-05
0.52439851 1.1046299 -0.95447278 8388736 0.018374743 -0.022457765 0.99957901 1.4505993e-05
0.54562706 1.0081667 -0.95822823 8388736 0.02041656 -0.021365963 0.99956322 1.8147137e-05
0.5773803 0.91293901 -0.96170115 8388736 0.02037802 -0.01739925 0.999641 3.272144e-05
0.60715777 0.82159418 -0.96398342 8388736 0.020632327 -0.0050882199 0.99977416 5.3957654e-05
0.63195437 0.72554588 -0.96395361 8388736 0.021387963 0.0017511559 0.99976975 2.4153826e-05
0.66077971 0.62664378 -0.9624362 8388736 0.024540739 0.0017745869 0.99969733 3.0610303e-05
0.68820733 0.53105921 -0.96490359 8388736 0.027086146 -0.0042269775 0.99962419 1.9138495e-05
0.72457474 0.43460518 -0.96617836 8388736 0.02796072 -0.0077333893 0.99957913 1.0830097e-05
0.7453087 0.34106109 -0.96776229 8388736 0.026703617 -0.0052781692 0.9996295 5.9464214e-06
0.77463156 0.24490982 -0.96954769 8388736 0.025352802 -0.0031484552 0.9996736 1.0331086e-06
0.80368447 0.14953975 -0.96996176 8388736 0.027913658 -0.0084362039 0.99957472 5.9939601e-05
0.83251262 0.051155888 -0.97041398 8388736 0.037932739 -0.028472232 0.9988746 0.00023189611
0.85800624 -0.04472924 -0.9748705 8388736 0.046307981 -0.038637374 0.99817973 0.00014135712
0.88783771 -0.13649993 -0.98457551 8388736 0.046528552 -0.03860968 0.99817055 0.00014752118
0.91895336 -0.23483728 -0.9866243 8388736 0.038918 -0.024648203 0.99893838 0.00014552735
0.9462859 -0.33489168 -0.98829609 8388736 0.027360823 -0.012143473 0.99955183 3.9914332e-05
0.97350013 -0.42829886 -0.99083966 8388736 0.022512672 -0.021032885 0.99952531 0.00041512257
1.0013528 -0.52417481 -0.99275702 8388736 0.011147309 -0.013364621 0.9998486 0.00057821959
1.0315152 -0.61863613 -0.99345601 8388736 -0.0068678148 0.0021033925 0.99997431 0.0009951361
1.0671058 -0.70537829 -0.99218619 8388736 -0.016810218 0.02537078 0.99953699 0.00095942663
1.1052608 -0.77962762 -0.99109715 8388736 -0.011484723 0.045074962 0.99891788 0.00045251404
1.1070251 -0.92073458 -0.98320419 8388736 -0.023762511 0.038521592 0.99897552 0.0001489409
1.1443739 -1.0031434 -0.97924155 8388736 -0.042620324 0.044116408 0.99811733 0.0003306123
1.1743059 -1.0972433 -0.97510076 8388736 -0.060731355 0.034210268 0.99756837 0.00037150062
1.2006927 -1.1948297 -0.96935093 8388736 -0.074190974 0.027875474 0.99685514 0.00030443878
1.2297359 -1.2910233 -0.96415323 8388736 -0.079386182 0.021945952 0.99660313 0.00016275699
1.2583464 -1.3865237 -0.9590714 8388736 -0.080363095 0.012431674 0.99668896 6.6230416e-05
1.2873523 -1.4804013 -0.95561743 8388736 -0.086019136 -0.0019298457 0.99629247 0.0001603975
1.3148289 -1.5772339 -0.95391244 8388736 -0.083701491 -0.019468587 0.99630147 0.00013123467
1.3448329 -1.6721066 -0.95447332 8388736 -0.08102987 -0.03601779 0.9960615 7.4924639e-05
1.3723369 -1.7695628 -0.95699769 8388736 -0.07455498 -0.049853921 0.99597079 6.3363019e-05
1.4004297 -1.8621039 -0.95878017 8388736 -0.067083925 -0.05802146 0.9960596 6.7654495e-05
1.4306723 -1.960796 -0.96448427 8388736 -0.049701076 -0.070678636 0.99626082 0.00027031632
1.4581019 -2.0555918 -0.97097641 8388736 -0.023898613 -0.078250431 0.99664772 0.00069579284
1.4859972 -2.1498935 -0.97345912 8388736 -0.0043459334 -0.073863372 0.9972592 0.00083581678
1.5132442 -2.2459521 -0.98388845 8388736 0.00031867629 -0.057625651 0.9983384 0.00078254897
1.541209 -2.3443162 -0.9865346 8388736 0.011323667 -0.042852964 0.9990173 0.0012461689
1.569561 -2.4384441 -0.98942506 8388736 0.015728539 -0.02423233 0.99958259 0.0011249472
1.5960811 -2.532577 -0.99078888 8388736 0.01836128 0.00074296904 0.99983114 0.00081190997
1.6195427 -2.6285727 -0.99272513 8388736 0.011873965 -0.0049424567 0.99991727 0.00084243179
1.6458142 -2.7139232 -0.99276412 8388736 0.011165855 0.00054444565 0.99993759 0.00074420724
1.6643569 -2.806803 -0.99286306 8388736 0.016409153 0.0039803912 0.99985743 0.00063540461
1.7283303 -2.9096267 -0.99331039 8388736 0.023500148 0.0042473003 0.99971485 0.00074634736
1.743454 -3.0732837 -0.99087149 8388736 0.035013285 0.014645683 0.9992795 0.00063972885
1.800877 -3.1862323 -0.98929656 8388736 0.024538977 0.024876557 0.99938935 0.0010133509
1.8233796 -3.3111701 -0.98962557 8388736 0.016424848 0.0082639474 0.99983096 0.00082643569
1.8943127 -3.3652453 -0.98867422 8388736 0.029056843 0.011932325 0.99950653 0.00060629233
1.8334689 -3.506757 -0.98832029 8388736 0.032059632 -0.003164704 0.9994809 0.0004463933
3.0197899 -7.3210831 -0.89491361 8388736 -0.12263542 0.95722914 0.26227632 0.078376353
0.04211938 3.2230148 -0.93786871 8388736 0.033826958 -0.026469689 0.99907714 0.0011574096
0.022780327 3.1303647 -0.93750912 8388736 0.042029835 -0.01473597 0.99900764 0.00017942116
0.053530764 3.0381002 -0.93969291 8388736 0.035858218 -0.014133018 0.99925697 0.00016898292
0.077472486 2.9413352 -0.94090426 8388736 0.029471043 -0.0036347643 0.99955899 5.0546569e-05
0.10953541 2.8488369 -0.94159055 8388736 -0.014875081 0.031347755 0.99939805 0.017527847
0.13948186 2.7617369 -0.94271684 8388736 -0.0058983713 0.0024432009 0.99997967 0.018754175
0.16006039 2.6759787 -0.94395214 8388736 -0.070004918 0.12411279 0.98979741 0.11329737
0.19241711 2.5753698 -0.94563872 8388736 0.10819327 -0.056196228 0.99254078 0.13052586
0.21950702 2.4727032 -0.94709963 8388736 0.1101548 -0.10656347 0.9881863 0.078441128
0.25296834 2.3802276 -0.9474225 8388736 0.015120692 0.0067131747 0.99986315 5.8437039e-05
0.27474368 2.2897985 -0.94582564 8388736 0.0080610765 0.011218961 0.99990457 2.2828219e-05
0.30832988 2.2030311 -0.94615942 8388736 0.0046447744 0.012195078 0.99991494 1.2076073e-05
0.3197059 2.0928075 -0.94398779 8388736 0.005609992 0.018297981 0.99981695 3.1445226e-05
0.36724156 2.0008321 -0.94227058 8388736 0.0076785334 0.021736868 0.99973428 3.7850787e-05
0.39032325 1.8996794 -0.93956 8388736 0.010084048 0.017076084 0.99980342 6.0183967e-05
0.41925883 1.7996033 -0.93686998 8388736 0.017483855 0.0038247278 0.99983978 0.00011263668
0.44432569 1.7162548 -0.93933225 8388736 0.01932572 -0.0098005598 0.99976516 7.4903073e-05
0.47265616 1.6183698 -0.94149458 8388736 0.022626251 -0.020491792 0.99953395 4.6634621e-05
0.50188309 1.5239556 -0.94456768 8388736 0.018820209 -0.022611286 0.99956715 3.0893094e-05
0.53275263 1.4261293 -0.94592792 8388736 0.017619792 -0.025590109 0.99951726 3.3911376e-05
0.55355072 1.3308997 -0.95111853 8388736 0.016330991 -0.025396736 0.99954402 3.8321094e-05
0.59122312 1.2317064 -0.95478415 8388736 0.018645611 -0.025728267 0.99949515 2.5826721e-05
0.6193521 1.1292192 -0.95612818 8388736 0.020190423 -0.023974523 0.99950868 1.8559196e-05
0.64362866 1.0372272 -0.96004152 8388736 0.021014903 -0.023115672 0.9995119 1.0047705e-05
0.67146701 0.94141102 -0.96349359 8388736 0.021024061 -0.019576702 0.9995873 3.582353e-05
0.70542908 0.8477152 -0.96554482 8388736 0.020474605 -0.0094993785 0.99974525 4.9677943e-05
0.72918415 0.75156015 -0.9653424 8388736 0.021193793 -0.00046010324 0.99977529 3.9986306e-05
0.75585651 0.65516365 -0.96537006 8388736 0.024432745 5.3241974e-06 0.9997015 1.8167502e-05
0.7870611 0.56051242 -0.96672666 8388736 0.027152728 -0.0057879216 0.9996146 2.5307203e-05
0.81346488 0.46201044 -0.96908343 8388736 0.02629259 -0.0089030564 0.9996146 2.8267598e-07
0.8443597 0.36965975 -0.9701795 8388736 0.025426134 -0.0051161307 0.99966365 1.6314396e-05
0.87000984 0.27471393 -0.97097439 8388736 0.025196476 -0.0031493141 0.99967754 8.3743043e-06
0.90157169 0.17754573 -0.97125167 8388736 0.030870048 -0.012131603 0.99944979 0.00011124232
0.92944616 0.081371523 -0.97255903 8388736 0.038067747 -0.031662073 0.99877346 0.00020728233
0.95795608 -0.014036421 -0.9803952 8388736 0.047241721 -0.042846132 0.99796426 9.7773744e-05
0.98453617 -0.11303769 -0.98714715 8388736 0.044885267 -0.034808829 0.99838561 0.00013757826
1.0130031 -0.20724052 -0.98938835 8388736 0.036385134 -0.019099241 0.99915534 9.6720098e-05
1.0420152 -0.30414376 -0.99146456 8388736 0.028310366 -0.0066751572 0.99957693 3.392396e-05
1.0676305 -0.39895451 -0.99314117 8388736 0.024646105 -0.0052636024 0.99968243 5.3530268e-05
1.0980841 -0.49422324 -0.99299937 8388736 0.0059992452 -0.0042299917 0.99997306 0.00061471161
1.1266594 -0.58877736 -0.99358022 8388736 -0.0060160081 0.0093851751 0.99993795 0.00066606188
1.154364 -0.68617797 -0.99137801 8388736 -0.016542699 0.026712973 0.99950647 0.0005664631
1.1861793 -0.77866542 -0.98713762 8388736 -0.029290857 0.045972873 0.99851358 0.00035990198
1.2323074 -0.85426658 -0.98347771 8388736 -0.035522725 0.05958819 0.99759138 0.00024755255
1.2254941 -0.99089044 -0.9754622 8388736 -0.073625654 0.063051134 0.99529183 0.001111982
1.2695411 -1.0708499 -0.96945393 8388736 -0.17666522 0.047148518 0.98314404 0.013419756
1.2981687 -1.1677775 -0.96145332 8388736 -0.19196449 -0.016450264 0.98126715 0.01327586
1.3272338 -1.2634563 -0.95611429 8388736 -0.19319764 -0.030872624 0.98067719 0.015760288
1.3542269 -1.3576674 -0.95187926 8388736 -0.17967713 -0.0079434691 0.98369628 0.01038561
1.3839124 -1.4530637 -0.94767696 8388736 -0.17409702 -0.016795604 0.98458785 0.0092923027
1.411458 -1.5493215 -0.94556278 8388736 -0.18039051 -0.03046074 0.98312616 0.0058133029
1.4406796 -1.6441927 -0.94623601 8388736 -0.17823465 -0.054383274 0.9824869 0.0053705536
1.4679456 -1.7388341 -0.94784278 8388736 -0.15195656 -0.089246176 0.98435223 0.0056813555
1.4957958 -1.8356557 -0.95121002 8388736 -0.18812975 -0.050646883 0.98084062 0.01605279
1.5246494 -1.9305501 -0.95742875 8388736 -0.16874623 -0.11729045 0.97865927 0.027448967
1.5575174 -2.0302422 -0.9603318 8388736 -0.056385558 -0.17536508 0.98288971 0.0231109
1.577834 -2.121181 -0.97814524 8388736 0.0054363888 -0.13269371 0.99114323 0.0098570511
1.6101456 -2.2182286 -0.98513132 8388736 0.017942434 -0.060937192 0.99798048 0.0029796022
1.637008 -2.3149548 -0.98898798 8388736 0.011335371 -0.044585101 0.99894142 0.0034235183
1.6651611 -2.4100811 -0.99124247 8388736 0.018381532 -0.016740423 0.99969095 0.0014121692
1.6942821 -2.5016599 -0.99328882 8388736 -0.0067033088 -0.0042025512 0.99996889 0.0014276351
1.7264866 -2.5959742 -0.99469185 8388736 -0.0068937941 -0.0020844988 0.99997413 0.0011445272
1.7536207 -2.6846688 -0.99447805 8388736 -0.00021881935 -0.0052801911 0.99998611 0.00099894253
1.7745986 -2.7792544 -0.99430913 8388736 0.01756485 -0.002836643 0.99984169 0.00096311892
1.8325961 -2.8678212 -0.99425447 8388736 0.017559053 -0.023982119 0.99955815 0.0010347578
1.9057688 -3.1835885 -0.9912352 8388736 0.041551206 0.030730948 0.99866378 0.00074749265
3.1077509 -7.2673316 -0.8972522 8388736 -0.40297002 0.91210353 0.076193221 0.025522403
0.090223722 3.2582581 -0.93984199 8388736 0.029387895 -0.027653147 0.99918556 0.0011770753
0.11326879 3.1678483 -0.94157583 8388736 0.031106768 -0.029455571 0.99908203 0.0011491675
0.15239319 3.073734 -0.94235462 8388736 0.042622052 -0.0084739421 0.99905533 0.00014926202
0.17486235 2.9784784 -0.94501835 8388736 0.014929508 0.05684334 0.99827176 0.015986603
0.20645045 2.8955667 -0.94662666 8388736 0.030609854 0.04045118 0.99871266 0.018491223
0.2338156 2.8008077 -0.94559389 8388736 0.019333374 0.013118546 0.99972713 0.020427758
0.2517724 2.6988766 -0.9470318 8388736 -0.13825305 0.11614788 0.98356557 0.15147252
0.28158754 2.608511 -0.94875073 8388736 0.038771518 -0.073805928 0.99651891 0.15796283
0.32179517 2.508038 -0.94860637 8388736 0.17943595 -0.13598213 0.97432858 0.075668521
0.34252378 2.4198177 -0.94802845 8388736 0.015942596 0.012988915 0.99978858 5.3960299e-05
0.37292695 2.3282671 -0.94825864 8388736 0.01053331 0.016168458 0.99981391 3.9806873e-05
0.40071058 2.2240865 -0.94585025 8388736 0.005496792 0.013985595 0.99988717 2.9292112e-05
0.41615146 2.131815 -0.94567472 8388736 0.0058022933 0.013296576 0.99989486 4.220767e-05
0.46064523 2.0276022 -0.94359696 8388736 0.0097980537 0.018080147 0.99978864 6.3613508e-05
0.4868896 1.927824 -0.94030905 8388736 0.015739895 0.015710009 0.99975276 6.8527552e-05
0.52075505 1.8261163 -0.93981063 8388736 0.021188462 0.00648124 0.99975449 0.00010037825
0.54005647 1.7370878 -0.94227242 8388736 0.022549484 -0.013037371 0.99966067 4.6182409e-05
0.57194602 1.6481382 -0.94386542 8388736 0.025733344 -0.016053701 0.99953997 2.6431491e-05
0.59558356 1.5453166 -0.94590205 8388736 0.023262922 -0.019039506 0.99954808 3.5208828e-05
0.63319856 1.4477371 -0.94856858 8388736 0.023605991 -0.023099281 0.99945444 3.2090855e-05
0.65554196 1.3541039 -0.95271188 8388736 0.023883557 -0.024109568 0.99942398 3.3849214e-05
0.68009204 1.2619479 -0.95453739 8388736 0.02301369 -0.023986923 0.99944735 2.9649213e-05
0.71057069 1.1670768 -0.95809656 8388736 0.021123355 -0.022476414 0.99952424 1.3379488e-06
0.74044609 1.0678669 -0.96162134 8388736 0.020268796 -0.024799742 0.99948698 2.072809e-05
0.76619482 0.96890301 -0.96461946 8388736 0.018858111 -0.020512016 0.99961179 2.57458e-05
0.79960412 0.87551188 -0.96758616 8388736 0.018041743 -0.013288224 0.99974895 3.6962927e-05
0.82623082 0.77895522 -0.96819001 8388736 0.019852612 -0.0027218959 0.99979925 2.3689872e-05
0.84912103 0.68625319 -0.96933818 8388736 0.02269602 -0.002956108 0.99973804 2.8036e-05
0.8828389 0.58753073 -0.96911609 8388736 0.024308177 -0.0052440539 0.99969077 6.9958314e-06
0.91155678 0.49483842 -0.97115225 8388736 0.025629867 -0.0071225003 0.99964607 1.5825457e-05
0.9385187 0.39846131 -0.97247428 8388736 0.025281074 -0.0057274913 0.99966395 8.5576739e-06
0.96484292 0.30041033 -0.97336608 8388736 0.02513855 -0.003016595 0.99967939 1.0301363e-06
0.99572921 0.20382954 -0.97365838 8388736 0.031322498 -0.01389024 0.99941278 0.00011426881
1.0250362 0.11016268 -0.97592998 8388736 0.043049295 -0.033601351 0.9985078 0.00017121024
1.0476933 0.016717415 -0.98484218 8388736 0.050175425 -0.042265639 0.99784583 8.908668e-05
1.080626 -0.083059363 -0.99065971 8388736 0.044302955 -0.033705305 0.99844944 0.00014547903
1.1076356 -0.1794806 -0.99233955 8388736 0.036659971 -0.016451981 0.99919236 5.6653498e-05
1.1355013 -0.27178058 -0.99519175 8388736 0.028972456 -0.0052456204 0.9995665 2.9831537e-05
1.1655365 -0.36761832 -0.99503595 8388736 0.02180182 0.0038897637 0.99975479 5.6848945e-05
1.194949 -0.46742618 -0.99399167 8388736 0.0086694118 0.011981007 0.99989069 6.0902112e-05
1.2240181 -0.56415385 -0.99340039 8388736 -0.017110856 0.023504844 0.99957746 0.00050502497
1.2499377 -0.65825909 -0.99121773 8388736 -0.015464467 0.034046099 0.99930084 7.7533143e-05
1.2774529 -0.75410205 -0.98637664 8388736 -0.026899336 0.048366666 0.9984678 0.00015912385
1.3081928 -0.84948319 -0.98152113 8388736 -0.057371534 0.074638113 0.99555987 0.0011434358
1.3427219 -0.92100465 -0.97247291 8388736 -0.15639269 0.1499013 0.97625738 0.011448149
1.3311477 -1.07605 -0.95594925 8388736 -0.33636263 0.073520683 0.93886751 0.02175531
1.3578665 -1.1419605 -0.95167345 8388736 -0.3547847 -0.015939327 0.9348219 0.02057538
1.3960129 -1.2533301 -0.94736755 8388736 -0.29365939 -0.13945988 0.94569033 0.020046789
1.4479742 -1.3342899 -0.94292074 8388736 -0.3580116 -0.13964058 0.92322737 0.033098906
1.4797829 -1.4238173 -0.93519157 8388736 -0.40539739 -0.15915577 0.90019357 0.033163149
1.5068532 -1.5202607 -0.93449396 8388736 -0.28836906 -0.052319136 0.95609564 0.0085058659
1.5341399 -1.6160324 -0.93500817 8388736 -0.21855633 -0.073351547 0.9730677 0.0078370124
1.5606391 -1.7135288 -0.93931419 8388736 -0.19002119 -0.10336331 0.97632736 0.0084974207
1.591503 -1.8074503 -0.9440375 8388736 -0.21968789 -0.065271094 0.97338849 0.025080362
1.6199157 -1.9023407 -0.95007509 8388736 -0.18636756 -0.10542994 0.97681046 0.036511421
1.6496687 -1.9964894 -0.96179628 8388736 -0.26972112 -0.17268062 0.94733644 0.053521883
1.6765387 -2.0943711 -0.983217 8388736 -0.19681013 -0.26039812 0.94523692 0.044765372
1.7046607 -2.1907132 -0.98808265 8388736 -0.25906205 -0.13057114 0.95700061 0.044218574
1.728672 -2.2854364 -0.9888652 8388736 -0.39836377 -0.071323529 0.91446286 0.061483998
1.7469789 -2.3840435 -0.98843241 8388736 -0.29678553 -0.093559124 0.95035738 0.059090797
1.7633449 -2.4806302 -0.98723334 8388736 -0.19817299 -0.083365299 0.97661912 0.039326143
1.7829889 -2.5914485 -0.98793256 8388736 -0.01176456 0.0014665778 0.99992985 0.00097492523
1.8076297 -2.6873567 -0.99087054 8388736 0.00056812254 -0.015209382 0.99988425 0.0012227293
1.8494412 -2.7570131 -0.99407572 8388736 0.009075419 -0.019426689 0.9997701 0.0013390696
1.8761839 -2.8412724 -0.99501276 8388736 0.01819119 -0.029460998 0.99940044 0.0013733809
1.9518318 -3.1551781 -0.99381095 8388736 0.031045657 0.032289639 0.99899632 0.0005829389
2.1321108 -3.5692477 -0.99109226 8388736 0.023170728 -0.0097838193 0.99968368 0.00047056368
3.1967504 -7.2069244 -0.90223897 8388736 -0.53139251 0.84710401 0.012664769 0.00024655671
3.1535974 -7.2407637 -0.88353556 8388736 -0.50996333 0.85968053 0.031784352 0.00094511284
0.18223074 3.2870965 -0.94329643 8388736 0.030241463 -0.028842695 0.99912637 0.0011756873
0.21006332 3.1912408 -0.94507259 8388736 0.025950007 -0.026907491 0.99930108 0.0010955961
0.23816366 3.0960395 -0.94562888 8388736 0.027466793 -0.024436593 0.99932396 0.0010292616
0.25753462 3.0229683 -0.94880998 8388736 0.053950656 0.04795913 0.99739146 0.013259369
0.29448166 2.9297059 -0.94844717 8388736 0.047548484 0.035889342 0.99822408 0.015954431
0.3204338 2.8246934 -0.94940972 8388736 -0.25014174 0.085359007 0.96444482 0.12033233
0.35446921 2.716258 -0.95003808 8388736 -0.32266909 0.028436109 0.94609272 0.18779387
0.38876835 2.627641 -0.95191711 8388736 0.063885011 -0.19661704 0.97839916 0.16826244
0.40723023 2.5404942 -0.95139456 8388736 -0.0038668248 -0.2625722 0.96490872 0.1018808
0.43387309 2.4507852 -0.95203614 8388736 0.016101493 0.012986222 0.99978608 4.6810699e-05
0.47546732 2.3373115 -0.94696367 8388736 0.011076595 0.017264226 0.99978966 4.7363286e-05
0.49147439 2.2434189 -0.9460339 8388736 0.0086969975 0.017652327 0.99980634 4.6194447e-05
0.52843773 2.1547887 -0.94490337 8388736 0.010788498 0.015142776 0.99982721 4.5578043e-05
0.55267692 2.054683 -0.94507778 8388736 0.01175169 0.018065497 0.99976778 5.7283243e-05
0.57959282 1.9681903 -0.94590211 8388736 0.016014233 0.013718884 0.99977773 7.5297976e-05
0.60933691 1.8656002 -0.94195443 8388736 0.022922575 0.0068751383 0.99971354 0.00010255366
0.63422835 1.7675961 -0.94454223 8388736 0.027074058 -0.0052794628 0.99961948 8.8985464e-05
0.6657356 1.6660656 -0.94607133 8388736 0.0282846 -0.015624223 0.99947786 5.0933068e-06
0.69307518 1.5759324 -0.94958204 8388736 0.028771343 -0.018930316 0.99940675 2.3928431e-05
0.72211599 1.4748578 -0.9511528 8388736 0.026676545 -0.019595366 0.99945199 3.1111704e-05
0.75188595 1.3846236 -0.95460027 8388736 0.024861194 -0.021953803 0.99944985 2.7713219e-05
0.77937275 1.2887913 -0.95648789 8388736 0.021851471 -0.022180552 0.99951518 1.7962207e-05
0.8080402 1.187577 -0.96049523 8388736 0.017279193 -0.022865478 0.99958926 1.8812036e-05
0.83666897 1.0955943 -0.96283537 8388736 0.015349612 -0.023584187 0.99960405 2.4685676e-05
0.86244315 1.0018018 -0.96450973 8388736 0.012535333 -0.022325231 0.99967217 7.9599404e-06
0.89531708 0.90365154 -0.96818382 8388736 0.013764186 -0.0178489 0.99974597 2.9304494e-05
0.9209075 0.80357146 -0.97012925 8388736 0.01822293 -0.009899254 0.99978501 3.1926607e-05
0.95032275 0.70890737 -0.97022748 8388736 0.02197708 -0.005689743 0.99974227 1.9475809e-05
0.97903639 0.61634737 -0.97069669 8388736 0.023427358 -0.00624891 0.99970603 1.1059868e-05
1.0042162 0.52327704 -0.97341257 8388736 0.025748139 -0.0076184715 0.99963939 1.2772385e-05
1.035061 0.42338789 -0.9742803 8388736 0.026914854 -0.0065416121 0.99961632 1.1919695e-05
1.060818 0.33193156 -0.97632807 8388736 0.026936607 -0.0041184155 0.99962866 4.5202501e-06
1.0906157 0.23432869 -0.97666442 8388736 0.035607353 -0.017851248 0.99920642 0.00013532095
1.1222869 0.13298684 -0.97926164 8388736 0.049896229 -0.038650822 0.99800628 0.00012671234
1.1469462 0.037305128 -0.98765141 8388736 0.050663736 -0.038962584 0.99795556 8.8486864e-05
1.1772524 -0.056426059 -0.99265373 8388736 0.041051075 -0.026663028 0.99880123 0.00012921139
1.2048084 -0.1516224 -0.99544513 8388736 0.029931955 -0.0099492762 0.99950248 6.035922e-05
1.2329993 -0.24742837 -0.99774951 8388736 0.023649201 -0.0012831569 0.9997195 4.2355896e-05
1.2598662 -0.34219187 -0.99865651 8388736 0.029215481 0.0016927517 0.99957168 0.00041476981
1.2902523 -0.44023544 -0.99614668 8388736 0.018506691 0.021755116 0.99959213 0.00057189423
1.3165708 -0.53422529 -0.99463362 8388736 0.0030180064 0.027050199 0.99962962 7.6592121e-05
1.3432726 -0.62814879 -0.99095213 8388736 -0.0099860281 0.041349493 0.99909508 0.00013460536
1.3724729 -0.73051667 -0.98522198 8388736 -0.025297223 0.055799223 0.99812192 0.00014032995
1.395715 -0.81839043 -0.97954208 8388736 -0.17448595 0.12777811 0.97633755 0.012536303
1.4086233 -0.91123599 -0.9691776 8388736 -0.29633489 0.1637731 0.94094676 0.019526601
1.4498155 -1.009966 -0.93667495 8388736 -0.48471043 0.14777559 0.86212152 0.03089498
1.5231562 -1.3373095 -0.93308884 8388736 -0.51605302 -0.31987631 0.79461735 0.035450332
1.5400851 -1.4040345 -0.923159 8388736 -0.46272832 -0.19719383 0.86430979 0.038653892
1.5609353 -1.4919243 -0.920416 8388736 -0.46335998 -0.067369528 0.88362265 0.028293522
1.5800098 -1.5881449 -0.91319543 8388736 -0.45507902 -0.12517415 0.88162643 0.024678743
1.6224951 -1.7217295 -0.91744888 8388736 -0.34717005 -0.12397595 0.9295817 0.016855236
1.6567805 -1.805582 -0.93397671 8388736 -0.49445724 -0.21025838 0.84341103 0.081312053
1.702337 -1.886977 -0.9396438 8388736 -0.46685526 -0.33044484 0.82030189 0.092967242
1.7329485 -1.9707811 -0.96885777 8388736 -0.30830052 -0.29345772 0.90490735 0.058234807
1.7524205 -2.067765 -0.9790436 8388736 -0.28877527 -0.23907793 0.92707598 0.053791922
1.766705 -2.1617007 -0.98015714 8388736 -0.51606774 -0.063849598 0.85418624 0.043775905
1.7826114 -2.2425246 -0.96224546 8388736 -0.53473073 -0.024283452 0.84469664 0.0444469
1.9574889 -2.747771 -0.99099833 8388736 0.0072758379 -0.02170434 0.99973804 0.0014616332
1.9912382 -2.8437839 -0.99549043 8388736 0.011227604 -0.033266637 0.99938351 0.0010410275
2.0154412 -2.8946919 -0.99575555 8388736 0.010287381 -0.022103278 0.99970275 0.00086345029
2.2254002 -3.4711201 -0.99299389 8388736 0.025057092 0.0080086403 0.99965394 0.00051952648
3.2828696 -7.1559954 -0.90032077 8388736 -0.52813131 0.84917068 0.010482835 0.00048310746
0.23858155 3.3423178 -0.94448346 8388736 0.03029553 -0.02891623 0.99912256 0.0011626775
0.37682384 2.8557422 -0.95167559 8388736 -0.38293433 0.003079874 0.92378181 0.11502425
0.39895409 2.7763638 -0.95326442 8388736 -0.38814738 -0.20020556 0.89960295 0.13955213
0.45385027 2.6475666 -0.95240074 8388736 -0.26490232 -0.29806763 0.91706246 0.1678153
0.49673513 2.54493 -0.95263308 8388736 -0.030374987 -0.27615306 0.96063828 0.12011112
0.52471334 2.4603558 -0.95365006 8388736 0.013342507 0.014563375 0.99980497 4.5062516e-05
0.54019916 2.3710718 -0.95077574 8388736 0.0094851414 0.01634388 0.99982148 4.4653232e-05
0.57997209 2.2646756 -0.94831181 8388736 0.011456721 0.015705101 0.99981117 4.6498455e-05
0.60744059 2.1572356 -0.9453429 8388736 0.0091466438 0.014823946 0.99984831 4.566506e-05
0.61744082 2.0855176 -0.94721788 8388736 0.012334125 0.015763175 0.99979979 4.3531145e-05
0.6482625 1.9772028 -0.94743586 8388736 0.021814866 0.01174036 0.9996931 7.88701e-05
0.68226492 1.8658259 -0.94299155 8388736 0.029879197 0.0038402735 0.99954617 0.00011098944
0.70930749 1.7902523 -0.94550419 8388736 0.031461656 -0.0023027775 0.9995023 9.047037e-05
0.74388015 1.695591 -0.94807875 8388736 0.030918594 -0.011723955 0.99945307 6.0064121e-05
0.77594018 1.6042918 -0.9503594 8388736 0.029637739 -0.01793037 0.99939984 8.2626066e-06
0.8124404 1.5036144 -0.95283169 8388736 0.028053291 -0.017950621 0.9994452 2.5376698e-05
0.84581941 1.4160529 -0.95713925 8388736 0.023816071 -0.019883802 0.99951863 2.5366073e-05
0.87481791 1.3181496 -0.95873237 8388736 0.019527458 -0.021975059 0.99956781 2.6049409e-05
0.90064985 1.2191631 -0.96044642 8388736 -0.014791449 -0.012218805 0.99981612 0.0028231861
0.93293679 1.1257737 -0.96333784 8388736 -0.014934714 -0.025058376 0.99957454 0.0031238103
0.95876402 1.0277433 -0.96497524 8388736 -0.084999211 0.0045209425 0.99637163 0.037525717
0.9890638 0.93420255 -0.96821791 8388736 -0.15923136 -0.046615344 0.98614246 0.059005477
1.0173616 0.83658355 -0.97091031 8388736 -0.13222146 -0.11967062 0.98397213 0.057975896
1.0450971 0.73895919 -0.97219527 8388736 -0.028007705 -0.088453352 0.99568719 0.02236619
1.0748131 0.64219314 -0.97344804 8388736 0.025223752 -0.0091647683 0.99963981 1.8436174e-05
1.1008511 0.54901004 -0.97555292 8388736 0.027514296 -0.0092884358 0.9995783 0
1.1291634 0.45308959 -0.97678292 8388736 0.02702651 -0.0069202431 0.99961072 9.4055184e-07
1.159941 0.35748017 -0.97860968 8388736 0.02980189 -0.010436635 0.99950135 7.7283366e-05
1.1867125 0.26110196 -0.97920269 8388736 0.040062703 -0.024219092 0.99890363 0.0002112715
1.2156824 0.16158402 -0.98477328 8388736 0.048626062 -0.041827746 0.99794084 0.00012417254
1.2470551 0.066751994 -0.99342614 8388736 0.046189252 -0.039385989 0.99815595 0.00010821671
1.2697957 -0.027388038 -0.9970277 8388736 0.036114413 -0.023671292 0.99906731 0.00016169806
1.3016759 -0.12304171 -0.9984464 8388736 0.024360908 -0.0087251784 0.99966514 6.8390647e-05
1.3284842 -0.22204378 -0.99874187 8388736 0.02480018 -0.0068543758 0.99966896 0.00042952792
1.3584526 -0.31495962 -0.99868613 8388736 0.021420246 0.00639258 0.99975008 0.00056461856
1.3840393 -0.41160637 -0.99806935 8388736 0.017761314 0.022761425 0.99958318 0.00064873922
1.4146312 -0.50794506 -0.9942804 8388736 0.00775174 0.040155195 0.99916357 0.00054726558
1.4239681 -0.57652181 -0.99183291 8388736 0.0012143077 0.053398043 0.99857289 0.00047252522
1.4421964 -0.73772889 -0.98375952 8388736 -0.040127032 0.077552892 0.99618119 0.001052137
1.4502692 -0.76423705 -0.9783982 8388736 -0.16147457 0.15606892 0.97446203 0.0092352275
1.7746732 -1.8942423 -0.92109764 8388736 -0.53624302 -0.4301731 0.7262612 0.084265403
1.7920334 -1.9455222 -0.91089684 8388736 -0.62788099 -0.43184099 0.6475749 0.089698836
3.3694611 -7.1010799 -0.90256727 8388736 -0.52194816 0.85295451 0.012736462 0.00037886569
0.90474361 1.392254 -0.95862442 8388736 0.020694356 -0.020229883 0.99958116 1.4943411e-05
0.94205111 1.3284423 -0.95805991 8388736 -0.011817852 -0.012547917 0.99985152 0.0025701609
0.97677618 1.2397509 -0.96107507 8388736 -0.012848793 -0.01693259 0.99977416 0.0027829632
1.0199945 1.1431457 -0.96288556 8388736 -0.09559755 0.0024211062 0.99541819 0.0314194
1.0538672 1.0560638 -0.96502364 8388736 -0.17588545 0.0047914353 0.9844017 0.058699403
1.0832987 0.9641574 -0.96712697 8388736 -0.26173055 -0.07560271 0.96218109 0.099796005
1.1133128 0.86719042 -0.97132283 8388736 -0.22005564 -0.12134101 0.96791589 0.12974183
1.138986 0.76734835 -0.97408026 8388736 -0.072719328 -0.19330724 0.97844249 0.096512228
1.170325 0.67565203 -0.97671962 8388736 -0.0081718266 -0.087375976 0.99614239 0.019734457
1.1970325 0.57701635 -0.97730166 8388736 0.026512215 -0.010267603 0.99959576 8.71049e-06
1.2272204 0.48207724 -0.97990108 8388736 0.024947215 -0.0068858382 0.99966496 9.9879144e-06
1.2513406 0.38629872 -0.98091698 8388736 0.030401139 -0.015263218 0.99942118 9.5136958e-05
1.2828958 0.2886464 -0.98129982 8388736 0.040012863 -0.030346209 0.99873829 0.0002613492
1.3114084 0.19373886 -0.98931098 8388736 0.042899068 -0.041632693 0.99821168 0.00017392983
1.3391839 0.096792236 -0.99697685 8388736 0.040207583 -0.035813291 0.99854934 0.00018406521
1.3674709 0.0009718698 -0.99973857 8388736 0.027117595 -0.019462638 0.99944276 0.00013640568
1.3972306 -0.092851758 -1.0005058 8388736 0.018261455 -0.0048647989 0.99982142 4.0925843e-05
1.4244628 -0.19148749 -0.99957126 8388736 0.016010277 -0.0077273925 0.99984199 0.00043265594
1.4528978 -0.28638127 -1.0009936 8388736 0.012751433 -0.00053838448 0.99991858 0.00053705421
1.4738133 -0.37923598 -0.99971187 8388736 0.0084440205 0.023037178 0.99969906 0.00070176175
1.5067363 -0.48104858 -0.99751002 8388736 0.0028489141 0.038808465 0.99924278 0.00058948406
1.5224193 -0.53712207 -0.99345624 8388736 -0.0014075083 0.050691541 0.99871367 0.00048708895
3.4277182 -7.0700588 -0.89154667 8388736 -0.51923758 0.85460943 0.012593972 0.00031912915
1.1165413 1.0393033 -0.96734625 8388736 -0.11607562 0.027261931 0.99286753 0.061108373
1.1526722 0.96698946 -0.96618801 8388736 -0.25437719 -0.068493046 0.96468198 0.12485056
1.214981 0.89195269 -0.96242189 8388736 0.010063842 0.017552188 0.99979544 0.2266828
1.2365496 0.79689932 -0.97608393 8388736 0.06717632 -0.40632328 0.91126746 0.16667913
1.2636139 0.70264679 -0.97853357 8388736 -0.01857155 -0.1982016 0.97998774 0.041750964
1.2947773 0.60584831 -0.97981411 8388736 0.024867482 -0.010318233 0.99963754 2.5827615e-06
1.3205358 0.51011127 -0.98270828 8388736 0.023109123 -0.007494804 0.99970484 7.6828237e-06
1.3513689 0.41449127 -0.98307455 8388736 0.030217154 -0.019611889 0.99935091 0.0001727394
1.3786751 0.31603646 -0.9832778 8388736 0.037271496 -0.036038641 0.99865514 0.00022620938
1.4068279 0.22164732 -0.99205369 8388736 0.037173692 -0.042998988 0.99838334 0.00016727978
1.434833 0.12572764 -0.99807131 8388736 0.027352849 -0.03701989 0.99894017 0.00022056639
1.4637269 0.029486578 -0.99981576 8388736 0.017896334 -0.01479172 0.99973041 7.9269979e-05
1.4918094 -0.065369047 -1.0010732 8388736 0.012751737 -0.0055004782 0.99990368 2.3553261e-05
1.5196724 -0.1626009 -1.0006442 8388736 0.010377035 -0.0089518651 0.99990612 0.0004331962
1.5491817 -0.25761873 -1.0012146 8388736 0.0073017422 -0.0016148604 0.99997205 0.00053750188
1.5820111 -0.34750986 -1.002057 8388736 0.0029593622 0.016908884 0.99985272 0.00071745343
1.6299132 -0.44032946 -0.99912572 8388736 0.0033855026 0.025602456 0.99966663 0.00069046434
1.6415132 -0.496344 -0.99556375 8388736 -0.003010202 0.039210789 0.99922663 0.00051439763
1.3102067 0.89393705 -0.95909327 8388736 0.050374072 -0.23885983 0.96974993 0.1165404
1.3354512 0.82431358 -0.97883254 8388736 0.10070923 -0.35343847 0.93002909 0.1308098
1.3583575 0.72764421 -0.97948939 8388736 0.063221328 -0.22132353 0.97315186 0.045357171
1.3916007 0.63472372 -0.98150408 8388736 0.016552204 -0.007912932 0.99983168 0.00012455514
1.418687 0.53715807 -0.98307103 8388736 0.01394899 -0.0081107188 0.99986982 0.00012149328
1.4467241 0.44388866 -0.98489857 8388736 0.021318177 -0.024029078 0.999484 0.00034700538
1.4789176 0.33982971 -0.98537451 8388736 -0.036726091 -0.039946288 0.99852699 0.011289272
1.501989 0.25031942 -0.99781257 8388736 0.018857457 -0.042407151 0.99892253 0.00040612911
1.5308988 0.1546471 -0.99921215 8388736 0.019338313 -0.033386651 0.99925542 0.00021114507
1.5573307 0.059555091 -1.0002664 8388736 0.013790753 -0.013078983 0.9998194 3.9750939e-05
1.5877562 -0.036466464 -1.0015848 8388736 0.012494862 -0.0075263395 0.99989367 2.4467117e-05
1.6163069 -0.13457711 -1.0028319 8388736 0.013736784 -0.0022492134 0.99990314 2.9240815e-05
1.6437795 -0.22971857 -1.0024731 8388736 0.0053768265 -0.0019489719 0.99998367 0.0004902113
1.6699629 -0.32388565 -1.000995 8388736 -0.0010324506 0.019770177 0.99980414 0.0006169902
1.6881236 -0.42369664 -0.99936759 8388736 -0.0010158954 0.026291568 0.99965394 0.00056706584
1.7075938 -0.47619057 -0.99643123 8388736 0.0004270722 0.033398867 0.99944216 0.00047286352
1.4185901 1.0358664 -0.98041886 8388736 0.94335347 -0.30769807 0.12460501 0.2054158
1.400526 0.94610786 -0.96647227 8388736 0.22710794 -0.058743354 0.97209889 0.17393661
1.4253621 0.8572889 -0.98075819 8388736 0.17706631 -0.15473704 0.97196156 0.075962998
1.454568 0.75952077 -0.98220861 8388736 0.12303475 -0.13810293 0.98274767 0.041722201
1.4847214 0.6653828 -0.98405069 8388736 -0.03784664 0.015183786 0.99916846 0.0056566745
1.5167469 0.56619215 -0.98538816 8388736 -0.037045319 -0.0030142311 0.9993093 0.0062325159
1.5430937 0.4666802 -0.98631501 8388736 -0.087731943 -0.022054939 0.99590075 0.015445241
1.5731903 0.36884269 -0.98869598 8388736 -0.13983975 -0.065329686 0.98801875 0.029533662
1.5994613 0.28151497 -0.99835521 8388736 -0.17775421 -0.090573855 0.97990108 0.034705263
1.6247257 0.1802744 -0.99917185 8388736 -0.19403635 -0.12391511 0.97314072 0.039708484
1.6548756 0.085862339 -1.0006735 8388736 -0.023642762 -0.039722253 0.99893129 0.0014662913
1.6851473 -0.009193589 -1.0029097 8388736 -0.0094869481 -0.024740903 0.99964899 0.00072920806
1.7128026 -0.10567646 -1.0048444 8388736 0.013354168 -0.0047560902 0.99989957 6.2551546e-05
1.7396386 -0.19954377 -1.0050144 8388736 0.01402731 0.0036911115 0.9998948 8.4568514e-05
1.7562894 -0.27041361 -1.0057359 8388736 0.013904468 0.015771145 0.99977899 7.1517599e-05
1.4075116 1.4422395 -0.96343434 8388736 -0.97543782 -0.21182247 0.061447013 0.021293679
1.4216942 1.3574599 -0.97172892 8388736 -0.97310585 -0.20647313 0.10274544 0.019430095
1.4358714 1.2743902 -0.97859746 8388736 0.9786762 0.1614247 -0.12750396 0.026399394
1.4515232 1.1718236 -0.97753912 8388736 0.99548954 0.085319005 0.042942598 0.052522719
1.4637398 1.0753354 -0.98002118 8388736 0.99654585 0.070607729 0.045096576 0.091041639
1.4991466 0.97966367 -0.98294115 8388736 0.60244364 -0.024306605 0.79781705 0.1992045
1.5239819 0.88083738 -0.98300844 8388736 0.19617678 -0.098251425 0.97563601 0.12455945
1.5523537 0.78564918 -0.98442012 8388736 0.29296756 -0.13734576 0.94621176 0.089948833
1.5739228 0.6907931 -0.9853738 8388736 -0.0059955586 -0.034592368 0.99938363 0.025015997
1.5904042 0.58777845 -0.97748768 8388736 -0.095349394 0.022113016 0.99519932 0.011409289
1.6217043 0.49081969 -0.98465443 8388736 -0.21753652 0.0015283772 0.97605491 0.025215371
1.6514875 0.39386907 -0.98947084 8388736 -0.46127063 -0.14726517 0.87497109 0.068556741
1.7019777 0.30464461 -0.98291111 8388736 -0.55400115 -0.32862461 0.76494622 0.09841764
1.7266257 0.21713977 -0.99703407 8388736 -0.53498781 -0.3720012 0.75858968 0.093693778
1.7509586 0.11384354 -1.0021194 8388736 -0.17853241 -0.22456117 0.95797169 0.056739192
1.7792909 0.020695122 -1.0037094 8388736 -0.21652074 -0.13071692 0.96749222 0.050441574
1.8066877 -0.074658528 -1.0058323 8388736 -0.19329132 -0.11259498 0.97466326 0.056481943
1.8365833 -0.17251438 -1.004963 8388736 -0.070836119 -0.053358294 0.99606067 0.024078442
1.8565109 -0.23595883 -1.0059365 8388736 -0.083792791 -0.1259587 0.98849207 0.031450875
1.4025322 1.5351032 -0.96898639 8388736 -0.97543782 -0.21182218 0.061446592 0.021293961
1.4287014 1.4743147 -0.96277088 8388736 -0.97543353 -0.21183777 0.061461858 0.021293823
1.4518633 1.3736815 -0.9691202 8388736 -0.97310871 -0.20646442 0.10273685 0.019429548
1.482934 1.2935774 -0.97566199 8388736 -0.97412378 -0.16143167 0.15856902 0.026511043
1.5057356 1.1951528 -0.98009408 8388736 0.9869169 0.094308764 -0.13123745 0.045184471
1.5285414 1.0999076 -0.98216885 8388736 0.99654388 0.07062456 0.045113809 0.091035627
1.5546811 0.99739784 -0.98145765 8388736 0.91865116 0.112262 0.37891981 0.13181891
1.5768099 0.90682203 -0.98348063 8388736 0.962843 0.10488594 0.24909051 0.14393751
1.5949956 0.82373458 -0.97795004 8388736 0.45876014 -0.27325869 0.84551787 0.17406031
1.7856634 0.21659443 -0.96937788 8388736 -0.71823931 -0.45703369 0.52473271 0.069284678
1.8336284 0.13661586 -0.98110873 8388736 -0.4984549 -0.42882702 0.75346255 0.081540786
1.882584 0.045932546 -0.98800975 8388736 -0.62608725 -0.4494786 0.63722807 0.09762308
1.9088334 -0.041479155 -1.001951 8388736 -0.45806679 -0.29131335 0.83985138 0.097515516
1.9318712 -0.14491834 -1.0085658 8388736 -0.24423651 -0.18020979 0.95283043 0.065030754
1.9626498 -0.2383832 -1.007292 8388736 -0.27151915 -0.24243307 0.93140829 0.048829127
1.9965607 -0.33442274 -1.0035793 8388736 -0.32935196 -0.26784968 0.90543258 0.048850533
2.0351481 -0.42522007 -0.99884897 8388736 -0.33745441 -0.27703163 0.89966857 0.048278201
2.0604973 -0.52113879 -0.99190897 8388736 -0.071574435 -0.20276746 0.97661072 0.068938419
2.0927734 -0.59630859 -0.98326659 8388736 0.062697358 0.17898633 0.98185408 0.044343825
1.9370798 0.017641371 -1.0143702 8388736 -0.64252657 -0.5166111 0.56600255 0.10670639
1.9682109 -0.042575128 -0.97509634 8388736 -0.74053741 -0.47184223 0.47860917 0.083315715
2.0149264 -0.12197345 -0.98368287 8388736 -0.58402669 -0.37349084 0.72074932 0.082363524
2.0657499 -0.21089068 -0.98938555 8388736 -0.67092192 -0.43839747 0.59812486 0.074784927
2.0891409 -0.3031196 -1.00212 8388736 -0.19553648 -0.17954621 0.96412581 0.09642788
2.1140268 -0.40487567 -1.004756 8388736 -0.14629199 -0.19772297 0.96928459 0.076472558
2.1401525 -0.4988867 -1.0005046 8388736 -0.045903657 -0.15459737 0.98691231 0.061617281
2.1707053 -0.59316576 -0.99331677 8388736 -0.017363338 0.051125653 0.99854159 0.062597781
2.2024102 -0.68302608 -0.98429143 8388736 0.21715654 0.36538222 0.9051854 0.019124378
2.2509115 -0.77736717 -0.96780998 8388736 0.40120715 0.42922959 0.80921918 0.025375338
2.3553331 -1.0960299 -0.9602139 8388736 0.81721348 -0.078655101 0.57101226 0.087777846
2.3685911 -1.1273412 -0.93550998 8388736 0.76674527 0.025444888 0.64150065 0.094950341
2.530143 -1.6707177 -0.99080259 8388736 0.45036969 -0.022114484 0.89258057 0.049359322
2.5340567 -1.7355086 -0.98978907 8388736 0.42316148 -0.030189779 0.9055618 0.063290194
2.5664546 -1.8267486 -0.99813837 8388736 0.082798302 -0.01302058 0.99648136 0.0036825428
2.5976634 -1.8995494 -1.0024742 8388736 0.24959195 0.22366185 0.94217396 0.050144888
2.810385 -2.8226385 -1.0055494 8388736 0.00062064262 0.019594379 0.99980789 0.0021670363
2.8597794 -2.8703976 -1.0053958 8388736 0.036583964 0.022464311 0.99907815 0.0021951124
2.8823364 -2.9585497 -1.007064 8388736 0.04240967 -0.0011446015 0.99909967 0.0023429408
2.9134953 -3.06423 -1.0059876 8388736 0.046393197 1.5036491e-06 0.99892336 0.0016171293
3.2701662 -4.1508636 -0.97687 8388736 0.020805914 -0.0073228828 0.99975675 0.0042673303
2.1470225 -0.29819268 -0.97600758 8388736 0.16867521 -0.098327376 0.98075664 0.21022139
2.2077942 -0.37288937 -0.98694092 8388736 0.26007646 -0.24595787 0.93374431 0.15486729
2.2362103 -0.47035962 -1.008864 8388736 0.11444087 -0.063725151 0.99138469 0.048513759
2.2645867 -0.56879824 -1.0042093 8388736 0.080795065 0.087891728 0.99284869 0.0020209684
2.2919517 -0.64311695 -0.99838525 8388736 0.13557898 0.21592867 0.96695441 0.018339586
2.3182614 -0.76839286 -0.97063446 8388736 0.26232243 0.34273133 0.90207762 0.025416408
2.3796988 -0.82197666 -0.97395146 8388736 0.32491219 0.31406757 0.89208591 0.0205297
2.4144537 -0.92559648 -0.96285701 8388736 0.40775406 0.17721768 0.89574128 0.04975966
2.4169292 -1.0528425 -0.96183538 8388736 0.71577591 -0.12727392 0.68667859 0.097554803
2.4394903 -1.1334339 -0.98377442 8388736 0.52731091 -0.084800638 0.84544873 0.066442385
2.4901221 -1.2233709 -0.99313748 8388736 0.33334234 0.003735061 0.94280452 0.019190785
2.5297625 -1.3198309 -0.99402392 8388736 0.13176711 0.020913379 0.99106067 0.0012805122
2.558743 -1.4217308 -0.99687171 8388736 0.11772374 0.0082776258 0.99301243 0.0010856568
2.5759864 -1.523721 -0.99941248 8388736 0.11934876 -0.0065019275 0.99283159 0.0015426163
2.5827963 -1.6222612 -0.99989742 8388736 0.11510341 -0.027481273 0.99297374 0.0023444719
2.6027517 -1.7155321 -1.0053016 8388736 0.1106642 -0.022328822 0.9936074 0.0029616547
2.6288271 -1.8098712 -1.0107586 8388736 0.088142596 -0.0028136948 0.99610406 0.003951258
2.652168 -1.9084973 -1.012427 8388736 0.24713565 0.22613981 0.94222993 0.050108209
2.6863818 -1.9928262 -1.0080203 8388736 0.5544011 0.31153035 0.77177411 0.048206676
2.7407701 -2.0945742 -1.0008297 8388736 0.43824366 0.20713267 0.87467992 0.058650494
2.778507 -2.1573122 -1.006032 8388736 0.27047834 0.12759666 0.95423794 0.047985151
2.8104868 -2.2463517 -0.99039829 8388736 0.089074962 0.030585563 0.99555552 0.0040744315
2.8187771 -2.4894912 -1.0077212 8388736 0.08079467 -0.019269425 0.9965446 0.0015467767
2.9583149 -2.7886746 -1.0083565 8388736 0.039401177 0.022632148 0.99896723 0.0022577189
2.9510422 -2.8176954 -1.0052589 8388736 0.039409067 0.022633221 0.99896687 0.0022719197
2.965019 -3.0897 -1.0061625 8388736 0.045305055 0.0093375882 0.99892956 0.0014376971
3.0725868 -3.2191107 -1.0058404 8388736 0.046920247 0.010467304 0.99884391 0.0013622402
3.1270437 -3.4310474 -1.0054836 8388736 0.040066257 -0.0040483163 0.99918884 0.00089137058
4.0880933 -6.6592197 -0.9186669 8388736 -0.52886742 0.84868044 -0.012809993 0.00013851079
2.3010068 -0.17849897 -1.0208975 8388736 0.18835337 0.058546253 0.98035651 0.028515246
2.303926 -0.25600827 -1.0184296 8388736 0.26845989 0.11863732 0.955962 0.054593321
2.3045306 -0.34964073 -1.0133696 8388736 0.24697238 0.076022178 0.9660393 0.060013387
2.3321834 -0.44326615 -1.015309 8388736 0.2246473 -0.030734312 0.97395772 0.0500695
2.3602805 -0.53854138 -1.0119723 8388736 0.076337256 0.06874647 0.99470979 0.00062254647
2.3915823 -0.63310838 -1.0064574 8388736 0.12174407 0.15612233 0.98020846 0.011783144
2.4210033 -0.73073423 -0.99858195 8388736 0.18662234 0.1550502 0.97012264 0.016955303
2.4370644 -0.82191461 -0.98944896 8388736 0.27320203 0.21642296 0.93730211 0.025751112
2.4875522 -0.93730986 -0.98363554 8388736 0.3053976 0.0031352255 0.95222467 0.034701183
2.5014644 -1.0141786 -0.98900342 8388736 0.34696147 -0.0041584615 0.93787676 0.036506865
2.5293469 -1.1138728 -0.99999559 8388736 0.28477713 -0.082563132 0.95503616 0.025289914
2.5581248 -1.2094425 -1.0001358 8388736 0.22398175 -0.0083040139 0.97456026 0.010111012
2.5874026 -1.3045824 -1.0001657 8388736 0.10093047 0.018053463 0.99473 0.0019184406
2.61408 -1.4013554 -1.0011456 8388736 0.09430147 -0.0037527089 0.99553686 0.0016139779
2.6423678 -1.4965912 -1.0034469 8388736 0.10558273 -0.0055808383 0.99439526 0.0014478054
2.6704669 -1.5918036 -1.0064056 8388736 0.083723903 0.0025650675 0.99648577 0.002318569
2.6969023 -1.6879711 -1.011683 8388736 0.081045933 -0.025054792 0.99639553 0.0027441087
2.7279463 -1.7811078 -1.0148212 8388736 0.027032623 -0.0054550958 0.9996196 0.0011154256
2.7455125 -1.8710122 -1.0146651 8388736 0.038574673 0.0043338588 0.99924636 0.0014380548
2.7643092 -1.9757884 -1.0143503 8388736 0.061589766 0.018033067 0.99793875 0.002106864
2.7931764 -2.0864344 -1.0110984 8388736 0.25418937 0.077408969 0.9640553 0.049868889
2.8125083 -2.1687255 -1.010583 8388736 0.074003309 0.055458229 0.99571514 0.0038648052
2.8559756 -2.2635653 -1.0113446 8388736 0.057597365 -0.001192105 0.99833924 0.003882363
2.8852153 -2.3492675 -1.0108634 8388736 0.07513009 -0.021787023 0.99693584 0.0024074283
2.9111812 -2.4461622 -1.0109434 8388736 0.082667999 -0.019899877 0.9963786 0.0015656339
2.9932868 -2.8096418 -1.0102724 8388736 0.039381664 0.022643318 0.99896771 0.0022580717
4.1601949 -6.611979 -0.92529815 8388736 -0.52302366 0.85228956 -0.013115196 0.0003023115
4.1250453 -6.6408181 -0.93766284 8388736 -0.52822012 0.84911317 -0.010662748 0.00018128664
2.3450773 0.033263743 -1.0162078 8388736 0.074227192 -0.0083978586 0.99720609 0.0016046963
2.3464293 -0.034488488 -1.0196834 8388736 0.058805436 -0.010439654 0.9982149 0.0017599951
2.3512902 -0.13061176 -1.0198046 8388736 0.031278715 -0.018132623 0.99934614 0.0012940074
2.3722405 -0.22336987 -1.0220596 8388736 0.024434038 -0.0087623224 0.99966311 0.0017041533
2.3986781 -0.31872776 -1.0225812 8388736 0.033643458 0.023834277 0.99914974 0.001930932
2.4283659 -0.41508645 -1.0208955 8388736 0.040316936 0.033438899 0.99862736 0.0018092832
2.4554408 -0.51232088 -1.0174184 8388736 0.06204896 0.048135463 0.99691194 0.001538636
2.4850259 -0.60678637 -1.0147657 8388736 0.064104371 0.064071253 0.99588466 0.0014885555
2.5071938 -0.69749296 -1.0095806 8388736 0.10569625 0.1031702 0.98903304 0.001647085
2.5540113 -0.81130123 -1.001205 8388736 0.16075054 0.13441059 0.97780246 0.014474983
2.5707173 -0.8960886 -0.99938458 8388736 0.25233763 0.07642556 0.96462005 0.023045883
2.5964112 -0.98908329 -1.0079681 8388736 0.2232576 -0.026531907 0.9744007 0.016534282
2.6256397 -1.0854465 -1.0077775 8388736 0.16420157 -0.039028257 0.98565555 0.012889653
2.6536601 -1.1814398 -1.008108 8388736 0.088361919 0.022868328 0.99582613 0.0020181846
2.6825004 -1.2763745 -1.0083466 8388736 0.10054843 0.020777062 0.99471551 0.0021531887
2.7098839 -1.3725508 -1.00933 8388736 0.081498273 0.012670889 0.99659318 0.0025859161
2.7379344 -1.4680172 -1.0107108 8388736 0.077644214 0.0090027284 0.99694055 0.0023766397
2.7668767 -1.5631888 -1.0140733 8388736 0.037403554 0.0063695721 0.99927998 0.0018961126
2.7941704 -1.6596414 -1.0161598 8388736 0.025799632 -0.00070513849 0.99966693 0.0011412766
2.8189569 -1.7499802 -1.0162225 8388736 0.022155618 0.0020123322 0.99975252 0.00079105457
2.8437815 -1.8347504 -1.0165615 8388736 0.028838672 -0.0038768428 0.99957657 0.00089198555
2.8800323 -1.9435902 -1.0161998 8388736 0.032840617 -0.0064142304 0.99944007 0.001329561
2.9405749 -2.1301913 -1.0083188 8388736 0.025281079 0.019083124 0.99949825 0.0031689678
2.9729137 -2.1935737 -1.0151325 8388736 0.05641827 -0.0099451523 0.99835771 0.0042750342
4.2481513 -6.5561776 -0.92198044 8388736 -0.51984984 0.85357112 -0.035992961 0.00036806977
2.3520105 0.047076911 -1.0199908 8388736 0.07422664 -0.0083975513 0.99720615 0.0016030599
2.3824935 -0.021363758 -1.0188141 8388736 0.065805726 -0.0065111043 0.99781126 0.0018105292
2.4276528 -0.10739712 -1.0203152 8388736 0.011772608 -0.030948997 0.9994517 0.00078750687
2.4638324 -0.19790712 -1.022314 8388736 0.0046418929 -0.026139652 0.99964756 0.0011853484
2.494087 -0.29005787 -1.0235786 8388736 0.016503887 -0.011518674 0.99979746 0.0015945224
2.5236566 -0.38631073 -1.0229733 8388736 0.028038103 0.016822638 0.99946529 0.0016740705
2.5526671 -0.48127174 -1.0233798 8388736 0.037065268 0.02328361 0.99904162 0.0020083829
2.5763891 -0.57598513 -1.020689 8388736 0.051236551 0.052559223 0.99730283 0.0018149022
2.6096392 -0.67315429 -1.0155739 8388736 0.053964786 0.066316321 0.99633867 0.0021902376
2.6463058 -0.77559423 -1.0115979 8388736 0.057706766 0.033728417 0.99776381 0.00288892
2.6622138 -0.86164039 -1.0120825 8388736 0.097453386 0.011627433 0.99517238 0.0027129219
2.6926758 -0.96167153 -1.0136305 8388736 0.072262362 -0.0090077398 0.99734515 0.0019568803
2.722882 -1.0574497 -1.0137982 8388736 0.045899395 0.011809327 0.99887633 0.0025005525
2.7495344 -1.1528865 -1.0134447 8388736 0.045151025 0.010955782 0.99892008 0.0026411137
2.7791944 -1.2482932 -1.0147581 8388736 0.030359548 0.012091329 0.999466 0.0022252121
2.8055587 -1.3445008 -1.0151237 8388736 0.037387639 0.007006573 0.99927634 0.0018483074
2.8297567 -1.4391656 -1.0167559 8388736 0.029912852 0.0078696683 0.99952155 0.0016240744
2.857213 -1.5338855 -1.0176636 8388736 0.026702402 0.0083016893 0.99960899 0.0011152664
2.8929603 -1.6264507 -1.0189834 8388736 0.023710201 0.0066454415 0.99969679 0.00080253469
