# .PCD v0.7 - Point Cloud Data file format
VERSION 0.7
FIELDS x y z rgb normal_x normal_y normal_z curvature
SIZE 4 4 4 4 4 4 4 4
TYPE F F F U F F F F
COUNT 1 1 1 1 1 1 1 1
WIDTH 567
HEIGHT 1
VIEWPOINT 0 0 0 1 0 0 0
POINTS 567
DATA ascii
-4.7016716 -2.4094071 -0.18989998 255 0.90755433 0.41950333 -0.019030241 0.000817238
-4.6891098 -2.4238544 -0.1458714 255 0.79276967 0.60931379 -0.015906574 0.0032780981
-3.6523728 -2.4979897 -0.19519998 255 -0.098472707 0.97272134 0.21003917 7.2825926e-05
-3.5327325 -2.4933877 -0.17265554 255 -0.10570373 0.97300118 0.20517164 6.4591855e-05
-3.4517665 -2.4904962 -0.14937998 255 -0.1082195 0.9719317 0.20889558 0.0001247014
-3.3486376 -2.4771261 -0.14995997 255 -0.12125747 0.97123903 0.20491789 0.00014850614
-3.2471216 -2.4651845 -0.15247083 255 -0.12329296 0.97170663 0.20145746 8.9933797e-05
-3.1487532 -2.4520237 -0.14945999 255 -0.075144239 0.97910309 0.18897244 0.0024814827
-3.0479403 -2.4382532 -0.15407036 255 0.31169665 0.92541957 0.21550831 0.052897822
-2.9563169 -2.4586234 -0.15242884 255 0.63369972 0.76952171 0.079125695 0.11885387
-2.4218435 -2.4978952 -0.12794998 255 -0.54715431 0.8370254 -0.0032458801 4.4795004e-05
-2.3588989 -2.4595335 -0.15055555 255 -0.54244637 0.84008956 -0.0012304649 2.2546903e-05
-2.2849321 -2.411011 -0.14663635 255 -0.54575408 0.83794224 -0.0023130206 6.9069298e-05
-4.7083192 -2.3897719 -0.14605998 255 0.83413702 0.55128193 -0.017427705 0.0026845394
-4.6997395 -2.3853242 -0.17909999 255 0.90774751 0.41908368 -0.019060504 0.00098457118
-2.2290561 -2.3744898 -0.15329997 255 -0.54700643 0.83711541 -0.0046679438 0.00010028847
-2.1520905 -2.3235571 -0.14838888 255 -0.54579669 0.83790028 -0.005395412 5.1924897e-05
-2.1033914 -2.2940803 -0.15376 255 -0.54724896 0.83695996 -0.0040769395 8.898299e-05
-2.0476208 -2.2543359 -0.1489958 255 -0.54692352 0.83716094 -0.0060165669 8.561612e-05
-1.9914529 -2.2198968 -0.15006998 255 -0.55014867 0.83502549 -0.0083047403 0.00010036133
-1.9393294 -2.1843793 -0.14684997 255 -0.55671734 0.83067197 -0.0070601692 9.5973308e-05
-1.8577949 -2.1292903 -0.1484607 255 -0.55468136 0.83203411 -0.006920462 6.0227205e-05
-1.8159546 -2.0975246 -0.15014999 255 -0.55170763 0.83401108 -0.0066503151 0
-1.7532085 -2.0608509 -0.14832619 255 -0.54346246 0.83940178 -0.0072901393 8.8378103e-05
-1.6773758 -2.0114498 -0.15013571 255 -0.53457248 0.84509248 -0.0071458197 8.8373767e-05
3.2977257 -2.0636573 -0.16822499 255 -0.16582589 0.98614901 -0.0034511241 0.0018446012
3.3383222 -2.0375166 -0.1480978 255 -0.1657162 0.98616743 -0.003464499 0.001825302
3.4671404 -2.0275497 -0.13465713 255 -0.16575867 0.98616028 -0.0034591549 0.0018363593
-2.9092553 -1.9147066 -0.14563806 255 0.76534998 -0.56631595 0.30581978 0.1942914
-2.8924828 -1.9314266 -0.1530818 255 0.76581162 -0.56567466 0.30585086 0.19424485
-1.6302019 -1.9798069 -0.14975999 255 -0.53333503 0.84588593 -0.0055427221 0.000112171
-1.5660683 -1.9426447 -0.14900297 255 -0.54197282 0.84037662 -0.0056998073 0.00010747738
-2.9373152 -1.8433826 -0.14846094 255 0.76540285 -0.56623536 0.30583674 0.19429366
-1.3711354 -1.8131285 -0.14427891 255 -0.55964893 0.82866532 -0.010337809 8.7358014e-05
-3.0073893 -1.7620214 -0.15295711 255 0.76535904 -0.5662989 0.30582836 0.19428992
-2.9847863 -1.7868721 -0.15140456 255 0.76535904 -0.5662989 0.30582836 0.19428992
-1.3225119 -1.7762856 -0.14955553 255 -0.55597609 0.8311336 -0.010366187 0.00011077661
-1.2495424 -1.7285932 -0.14915071 255 -0.54775542 0.83659214 -0.0087999664 0.00015095166
-1.20077 -1.697943 -0.16094284 255 -0.5447287 0.83856475 -0.0089344103 0.00015101461
-1.149195 -1.6656471 -0.14922692 255 -0.53550518 0.8444792 -0.0094377175 2.3794042e-05
-1.0727288 -1.6171989 -0.14922412 255 -0.53720975 0.84337997 -0.010759441 1.3248348e-05
-1.0224324 -1.5848848 -0.15148197 255 -0.53804666 0.84281915 -0.012713002 8.1181915e-06
-0.94826847 -1.5371702 -0.14972867 255 -0.54199088 0.84029114 -0.012513357 9.8189976e-06
-0.89416105 -1.5028242 -0.15610833 255 -0.54456031 0.8386029 -0.014117867 1.5213956e-05
-5.2183886 -1.4121082 -0.18086 255 0.6143024 0.56828749 0.54743207 0.059420053
-5.1736708 -1.4128931 -0.12179999 255 0.61077195 0.68416274 0.39859626 0.052223329
-0.8427487 -1.4686658 -0.14944857 255 -0.54658538 0.8372559 -0.015715431 1.2343387e-05
-0.76740241 -1.4198772 -0.15065043 255 -0.55042946 0.8347106 -0.016901569 5.7372076e-06
-5.8674788 -1.3149307 -0.10249999 255 0.059841845 0.3704384 0.92692733 0.047902204
-5.3151298 -1.3175842 -0.14943331 255 0.61431378 0.56831533 0.5473904 0.059391867
-5.2441783 -1.344677 -0.15819997 255 0.61466193 0.56829405 0.54702157 0.059234712
-5.1920748 -1.3870273 -0.11584999 255 0.61085886 0.68406808 0.39862546 0.052194446
-0.7186985 -1.3864864 -0.14920424 255 -0.55056047 0.83462471 -0.016876582 0
-0.64872831 -1.341095 -0.15045711 255 -0.55290413 0.83309007 -0.016059656 0
-0.592713 -1.3039739 -0.15787999 255 -0.55452365 0.83204269 -0.014437675 6.8729478e-06
-5.4118237 -1.2331692 -0.11861999 255 0.74894917 0.37049967 0.54936796 0.049467612
-5.3413372 -1.2496233 -0.16213527 255 0.50411719 0.51856482 0.6906203 0.038031612
-5.2962155 -1.2843205 -0.16489999 255 0.61411852 0.56828666 0.54763919 0.059503317
-0.5421626 -1.2691846 -0.14952992 255 -0.55636865 0.83078909 -0.015602676 2.3251179e-05
-0.4683246 -1.221269 -0.15112066 255 -0.5620603 0.82696068 -0.014970909 1.3832794e-05
-5.6373425 -1.1698459 -0.11295 255 0.23351696 -0.78099102 -0.5792433 0.068328373
-5.4293118 -1.1418453 -0.15706664 255 0.6406796 0.027470971 0.76731676 0.10999809
-5.3712282 -1.168551 -0.18055554 255 0.67377537 0.091837749 0.73320699 0.11412568
-0.41917911 -1.1862575 -0.1477931 255 -0.56306612 0.8262856 -0.014443313 1.8967132e-05
-0.34809566 -1.1373392 -0.14980745 255 -0.56562585 0.82456124 -0.01289458 1.1601856e-05
-0.29521713 -1.1017718 -0.15681247 255 -0.56348944 0.82603025 -0.012397307 5.8871101e-06
-5.5235643 -1.0859277 -0.11754999 255 0.83581018 -0.53410035 0.12711485 0.15135863
-5.4551096 -1.0623593 -0.16505383 255 0.67440438 -0.29701248 0.67598987 0.17669575
-5.3401942 -1.0011482 -0.15816665 255 0.73908716 -0.66202527 0.12438983 0.064536154
-0.24479423 -1.0670511 -0.14921683 255 -0.56278378 0.82651728 -0.011981674 0
-0.17299926 -1.0184766 -0.15005735 255 -0.56151187 0.82738113 -0.012035106 1.8604584e-05
0.079761088 -1.0327299 -0.14937522 255 0.39377317 0.91796619 -0.047756735 0.094306611
-5.3162618 -0.97199917 -0.14945999 255 0.67966241 -0.73019171 0.069849856 0.0093442984
-5.2435293 -0.91552955 -0.14369999 255 0.87547994 -0.4823876 -0.028932344 0.061588917
-1.8636063 -0.91636717 -0.14969228 255 0.57960737 -0.81489587 -0.00016217906 0.001114532
-0.1232439 -0.98354518 -0.14924382 255 -0.46933508 0.88115203 -0.057407849 0.053381734
-0.089654587 -0.96150035 -0.14984943 255 -0.073630959 0.99401242 -0.080733724 0.071107984
0.095634639 -0.9924438 -0.19939998 255 0.28948739 0.9508189 -0.11018351 0.093275085
-5.2075438 -0.86207622 -0.14232498 255 0.95475626 -0.29065603 -0.062924415 0.088610396
-5.19066 -0.83516121 -0.15280952 255 0.99948716 0.0026302587 0.031914432 0.086388439
-1.8298445 -0.89077455 -0.14698233 255 0.57962602 -0.8148827 -0.00016223612 0.0011101478
-1.7688723 -0.85018712 -0.15165199 255 0.66067863 -0.75057185 -0.012070036 0.015341197
-1.68756 -0.80012488 -0.11999999 255 0.84669185 -0.52802521 -0.065591156 0.069583058
2.050468 -0.81195384 -0.15019999 255 -0.81459779 -0.57999057 0.0064312615 0.00010269101
-5.245625 -0.74557513 -0.15024062 255 0.92119199 0.38136107 0.077260658 0.030919556
-1.6432571 -0.736799 -0.14968374 255 0.97283334 -0.23035693 -0.023043619 0.058186766
1.9860505 -0.72039789 -0.14817868 255 -0.81404167 -0.58078462 0.005036423 4.4559456e-05
2.0229075 -0.77016628 -0.14967598 255 -0.81464159 -0.57992905 0.0064326311 8.5407715e-05
-10.333241 -0.60887361 -0.14069998 255 0.55628335 -0.8308441 0.015714187 0.00039682916
-5.3282471 -0.64259791 -0.1486714 255 0.77199858 0.62709767 0.1037624 5.6802779e-05
-5.292377 -0.68656921 -0.15216666 255 0.8109799 0.57545435 0.10565916 0.0025070168
-1.7144878 -0.62137491 -0.15268379 255 0.87886572 0.47055677 -0.078557611 0.022282314
-1.6811414 -0.67172819 -0.1488245 255 0.96423686 0.26464182 -0.014559713 0.057039555
1.8998754 -0.60015583 -0.12259999 255 -0.81004798 -0.58621567 0.013170006 1.4407222e-05
1.9361812 -0.65131736 -0.14957619 255 -0.81120777 -0.58469212 0.0087803658 3.526999e-05
23.545612 -0.67587733 -0.18949999 255 -0.046824273 -0.057343941 -0.9972558 0.00035826277
-10.246824 -0.54873085 -0.14912498 255 0.55461371 -0.83196324 0.01551847 0.00038869129
-5.4181924 -0.52906549 -0.14835881 255 0.76960742 0.62885249 0.11067468 0.00036719663
-5.3794131 -0.58283192 -0.15452142 255 0.77008849 0.62957054 0.10297839 0
-1.7587832 -0.55085772 -0.14937814 255 0.82381982 0.5659827 -0.031376548 0.0026331916
1.8620675 -0.54915828 -0.15039097 255 -0.80985087 -0.58650851 0.012218281 2.4649175e-05
-10.153625 -0.48148617 -0.15037499 255 0.55393755 -0.83250862 0.0090903491 0.00030270309
-10.067656 -0.43204501 -0.14309999 255 0.54612738 -0.83764493 0.0097883567 0.00018731068
-5.515305 -0.41112149 -0.14708181 255 0.77813166 0.61816454 0.11128203 0.00039167496
-5.4716053 -0.46485949 -0.15060499 255 0.77679086 0.61990005 0.1109948 0.00041952133
-1.8047876 -0.49413562 -0.18064 255 0.82274646 0.56751251 -0.031904373 0.0026393202
-1.7933546 -0.49539918 -0.14263597 255 0.82380092 0.56601048 -0.031370778 0.0026321143
1.7777369 -0.43183038 -0.14993861 255 -0.81043363 -0.58572918 0.010890166 8.2681277e-07
1.8122073 -0.48135182 -0.15025964 255 -0.81100613 -0.58493257 0.01108702 1.5696131e-05
-9.9498711 -0.35569051 -0.1474833 255 0.53964561 -0.84185779 0.0076264227 0
-5.5539093 -0.35908976 -0.1497 255 0.77813387 0.61816043 0.11128977 0.00039105551
1.690539 -0.31163096 -0.14774914 255 -0.80922312 -0.58746672 0.0063927169 2.4818542e-05
1.7260956 -0.36129239 -0.14954688 255 -0.80918711 -0.58749568 0.0080643501 9.5573041e-06
-9.8319912 -0.28071237 -0.14254999 255 0.55670691 -0.8306793 0.0070193913 0.00038432886
-9.7481203 -0.22585945 -0.16393332 255 0.55451012 -0.83213484 0.008380034 0.00081712205
1.6427968 -0.24775398 -0.15005518 255 -0.81818527 -0.57493234 0.0050565423 0.00042697336
-9.7012815 -0.19051112 -0.16759999 255 0.55038977 -0.83488226 0.0065352046 0.00072094763
-9.6564026 -0.16589801 -0.15152499 255 0.54913765 -0.83572316 0.0038097475 0.00080062385
-9.5897665 -0.11942172 -0.16056664 255 0.53847325 -0.84263211 0.0042044749 0.00056044705
1.5686612 -0.14392225 -0.15006022 255 -0.85453683 -0.51665825 0.05320752 0.017911689
1.6040553 -0.19346854 -0.15267035 255 -0.80997199 -0.58562678 0.031410839 0.007667752
-9.5463982 -0.088614948 -0.13983332 255 0.54165417 -0.84051096 0.01232981 0.00045301631
-9.4597626 -0.03547756 -0.16315 255 0.54388547 -0.83897674 0.017511034 0.00023447388
0.56977874 -0.01634353 -0.18879999 255 -0.76792812 -0.075552553 0.63606465 0.021277342
1.5399675 -0.077981241 -0.14799553 255 -0.94414282 -0.32063282 0.076085098 0.037494939
-9.3549614 0.032220643 -0.15983331 255 0.53599763 -0.84404284 0.017270101 5.740561e-05
-9.2822266 0.080071278 -0.13713332 255 0.5412643 -0.84062672 0.019486234 0.0004615935
1.4665132 0.071711764 -0.10059999 255 -0.93453258 0.31318393 -0.16901092 0.17976154
1.549457 0.015302084 -0.10856666 255 -0.99955487 0.015595879 -0.025430923 0.11561006
-9.2239161 0.11391676 -0.14169998 255 0.54657209 -0.83726549 0.015665323 0.00030308226
-9.1591902 0.15985651 -0.15088332 255 0.54620469 -0.83751589 0.015085795 3.4781224e-05
1.5721697 0.11684854 -0.12657706 255 -0.67630386 0.73219997 -0.080599986 0.085250944
1.6489686 0.16149317 -0.14967792 255 -0.63187963 0.76969582 -0.091084808 0.060320493
1.7037904 0.19406888 -0.16373 255 -0.72849673 0.68178415 -0.066804655 0.055251595
-9.0429773 0.23812339 -0.14825553 255 0.55821532 -0.82964069 0.0095924046 0.00010951484
1.03404 0.27109557 -0.12110997 255 -0.77085084 -0.36389938 -0.52284449 0.10473704
1.1066743 0.28149021 -0.13969998 255 -0.64596879 -0.49114344 -0.58438218 0.1409193
1.2800375 0.24092561 -0.11499999 255 -0.16733891 0.19108699 0.96720392 0.166816
1.7517749 0.2329668 -0.15080728 255 -0.69302195 0.71900076 0.052520897 0.072105348
1.8305171 0.27341944 -0.15717776 255 -0.64465743 0.70518625 0.29517642 0.10151606
-8.9306717 0.31241196 -0.15361428 255 0.54941726 -0.83554488 0.0023094181 0.00029811182
-8.834053 0.37364826 -0.14171666 255 0.61699528 -0.78680462 -0.015979169 0.0046334085
1.0550691 0.35038766 -0.14825779 255 -0.71991867 -0.28848824 -0.63126189 0.10705587
1.4291164 0.3436422 -0.16779998 255 -0.019011198 -0.82059443 -0.57119465 0.16395284
1.5485557 0.3672381 -0.17959999 255 -0.68769997 -0.5289337 -0.49729049 0.17797965
1.7351815 0.34698531 -0.19021761 255 -0.94518757 -0.25645608 -0.20211585 0.16188426
-8.7527895 0.42939213 -0.1500857 255 0.63276523 -0.77432799 -0.0049457094 0.006082227
1.0814329 0.4402625 -0.16293065 255 -0.98357558 0.049646974 -0.1735343 0.092973523
1.1087105 0.44958875 -0.12367698 255 -0.98959678 0.14372733 -0.0063699335 0.12712666
-8.6953516 0.5060696 -0.14613332 255 0.69155079 -0.72228652 -0.0077217184 0.0043559214
0.8844198 0.59251064 -0.15530999 255 -0.11363339 -0.72996777 -0.67396927 0.057890415
0.9511677 0.58226776 -0.16281362 255 -0.39483187 -0.68579048 -0.61139131 0.18196136
1.0830328 0.58586967 -0.14510873 255 -0.28637514 -0.92232376 -0.25943804 0.22101231
1.1150448 0.57122791 -0.17496872 255 -0.66477084 0.31631002 0.67677748 0.28355166
1.2180551 0.57004082 -0.14989114 255 0.16358417 -0.96995211 -0.18009195 0.13053638
-9.3327322 0.65865606 -0.16466665 255 0.91299921 0.40792376 -0.0055279541 0.007753022
-1.3055772 0.62178695 -0.14937894 255 0.99377495 -0.070653416 -0.086136021 0.064822331
-1.2503045 0.66127133 -0.15007849 255 0.99848974 0.054844022 -0.0032261941 0.03577913
0.69498008 0.66163433 -0.19809999 255 -0.16355959 -0.47909248 -0.86239123 0.033026565
0.77246308 0.662543 -0.17887273 255 -0.013086504 -0.54139268 -0.84066802 0.068558164
0.84482068 0.63448191 -0.15948148 255 0.12248272 -0.61498016 -0.77897209 0.13168961
0.93437266 0.637025 -0.18388851 255 -0.13378002 -0.77040941 -0.62335569 0.12889585
1.0792141 0.62788719 -0.1549107 255 -0.38378966 -0.74657208 0.54344791 0.19557545
1.1206871 0.66299284 -0.14877842 255 -0.81382626 0.39703637 -0.42432174 0.18605171
1.2424201 0.62039357 -0.14889486 255 -0.33763942 0.31883058 0.88563341 0.25256291
1.3903093 0.64850986 -0.10019999 255 -0.076854922 -0.52423942 -0.84809566 0.16811852
1.4630934 0.66893905 -0.15513572 255 -0.71985811 -0.69134456 -0.062024277 0.19704561
1.5296893 0.65039647 -0.14218846 255 -0.79050809 -0.61088395 -0.043791819 0.16715945
-9.3328285 0.74185389 -0.14343332 255 0.90769303 0.41961884 -0.0036576216 0.0082087973
-1.2465056 0.74827725 -0.1498131 255 0.98825735 0.150355 -0.027215471 0.031820852
0.78249645 0.70868748 -0.19489999 255 -0.078893498 -0.40959209 -0.90885097 0.050243586
0.83980685 0.71382129 -0.17774999 255 0.024916952 -0.42483753 -0.9049266 0.14407374
0.977449 0.74647671 -0.1387912 255 -0.85118699 -0.27118412 0.44937733 0.22509637
1.0524212 0.75914192 -0.15106922 255 -0.38960019 -0.4505482 -0.80325466 0.27620885
1.1880158 0.7687335 -0.17228855 255 -0.87012339 0.20147482 -0.44977018 0.1429642
1.2090024 0.77055484 -0.14829509 255 0.033958934 -0.018821038 0.999246 0.18799116
1.3583467 0.78827906 -0.10184999 255 -0.2565597 -0.31944543 0.91221261 0.14153402
1.4689584 0.73108202 -0.13488516 255 -0.85815632 -0.51033163 -0.055940386 0.19527033
1.5578661 0.70729148 -0.14539999 255 -0.68834084 -0.68987918 -0.22417305 0.11285289
-9.4155197 0.86886883 -0.1564 255 0.91070318 0.41235703 -0.024110377 0.0063848393
-9.3799076 0.82023478 -0.14274999 255 0.90837985 0.41812888 -0.0037811208 0.0068813968
-8.1019878 0.84562027 -0.17479998 255 0.64736336 -0.76218146 -0.0001868589 0.0013427427
-8.0602293 0.87334609 -0.14485 255 0.64175111 -0.76689655 -0.0050075171 0.0013543749
-1.3245927 0.86361736 -0.15069644 255 0.83699542 0.5469026 -0.018338103 2.2251754e-05
-1.2916877 0.81418848 -0.1486444 255 0.93108124 0.36445096 -0.016225155 0.020194989
1.0424126 0.83609182 -0.11759564 255 0.44597566 -0.61988449 0.64563835 0.1705514
1.1855388 0.84513164 -0.16166857 255 -0.95920855 0.09582819 0.26596227 0.21667472
1.208553 0.83563769 -0.12142146 255 -0.41741756 -0.33047199 0.84649324 0.19534358
1.3643987 0.82766306 -0.10209999 255 -0.23234592 -0.45495734 0.85966808 0.064071856
1.4685862 0.85662872 -0.1036 255 -0.95127845 -0.2768403 -0.13575298 0.080200672
-9.4405899 0.91791391 -0.16126664 255 0.90529269 0.42436895 -0.018872645 0.0062707695
-8.0061417 0.92298919 -0.16989999 255 0.64178646 -0.76686704 -0.0050049536 0.0013224677
-7.9688811 0.95078105 -0.14112855 255 0.64177728 -0.76687479 -0.0050055562 0.001319908
-1.4057751 0.99133229 -0.15513076 255 0.81347966 0.58144748 -0.013024354 0.00085130992
-1.37415 0.94110858 -0.14819165 255 0.83012956 0.55736482 -0.01514307 0.00028131087
1.1828729 0.93938106 -0.14566828 255 -0.85873491 -0.012555649 0.51226616 0.11229423
1.2014961 0.90842748 -0.13004999 255 -0.45670992 -0.24406756 0.85548067 0.2219573
-1.4393848 1.0401818 -0.14935622 255 0.79881215 0.60117275 -0.022144886 0.00073724537
1.0992606 1.0990826 -0.12186667 255 -0.62189609 -0.77598625 -0.10531235 0.12114488
1.1226732 1.0775199 -0.14950047 255 -0.45822579 -0.84936827 -0.26192111 0.15636873
1.24353 1.0873133 -0.15225695 255 0.076680839 -0.99705565 -0.00044368391 0.18762228
1.3097609 1.079183 -0.17863332 255 0.15558189 -0.98526531 -0.071039662 0.1866919
-1.5169595 1.125587 -0.15581904 255 0.83899182 0.54400271 -0.012400098 0.0025358859
-1.4963697 1.1049898 -0.13515712 255 0.82754451 0.56105763 -0.019606249 0.0023505585
1.0686682 1.1515496 -0.14984366 255 -0.79294419 -0.59819835 -0.11575074 0.084100746
1.1347059 1.1024538 -0.15329999 255 -0.28022125 -0.94566888 -0.16488284 0.099128097
1.2248355 1.1093041 -0.15150809 255 -0.01362058 -0.95580298 -0.29369229 0.16330899
1.3395513 1.1350322 -0.16829999 255 0.38291919 -0.91985524 -0.085083686 0.15722497
-1.6018562 1.2958345 -0.14771666 255 0.87533712 0.48344624 -0.0080444766 0.00027506953
-1.5842366 1.2560225 -0.15013599 255 0.87349331 0.48671106 -0.011032201 0.00041513229
0.79788709 1.2545931 -0.12909998 255 0.37859401 -0.75587165 -0.53415793 0.059330489
0.98501766 1.2959158 -0.16486661 255 -0.70971018 -0.69537646 -0.1129739 0.051912535
1.0237854 1.2365925 -0.15016168 255 -0.82016784 -0.54710639 -0.16732988 0.042098891
-1.6329769 1.3463476 -0.14985469 255 0.85722488 0.51484323 -0.010095897 0.00021200451
0.86692804 1.3665869 -0.16377795 255 -0.081749402 -0.91466302 -0.39586452 0.073307358
0.95784009 1.3223971 -0.144151 255 -0.40856442 -0.84565729 -0.34342226 0.11282923
1.0279579 1.3147727 -0.14689554 255 -0.70743793 -0.66241485 -0.24645109 0.046878688
1.6120746 1.3620551 -0.17649998 255 0.61885899 -0.78496581 -0.029021554 0.0011365582
-10.469812 1.4437485 -0.14213999 255 0.8242898 0.56229091 0.066145234 0.031114204
-7.1164732 1.4898751 -0.15197499 255 0.56522822 -0.82493168 0.0021706354 0.00021943824
-1.7158959 1.4771234 -0.14939259 255 0.84415728 0.53578556 -0.018229077 2.004075e-05
-1.6839556 1.4252598 -0.15285756 255 0.84939653 0.52746344 -0.017548909 0.00010741512
0.89276552 1.4054267 -0.18899998 255 -0.30320176 -0.94438297 -0.12731653 0.079144076
0.90531546 1.4034543 -0.18259999 255 -0.30318373 -0.9443869 -0.12733051 0.079137638
-10.533472 1.5520816 -0.14453334 255 0.84361058 0.5367552 -0.014660877 0.00015784769
-7.0496259 1.5392915 -0.15022665 255 0.5687533 -0.82247806 0.0070369355 0.00021723055
-6.9776754 1.5845969 -0.16353998 255 0.58598864 -0.81021452 0.013026174 0.00098473905
-1.7617 1.5499977 -0.14800434 255 0.84237379 0.53856635 -0.018781247 9.4706884e-06
-10.615921 1.6802197 -0.14813332 255 0.84235436 0.53861409 -0.018273508 0
-10.590084 1.6379819 -0.14754999 255 0.83702815 0.54703093 -0.011880559 0.00025229747
-6.9335728 1.6176817 -0.15172499 255 0.61565715 -0.78789091 0.013935474 0.0015443232
-6.8799319 1.6568598 -0.14021249 255 0.65083241 -0.75922036 -0.0012355937 0.0023627451
-1.8276612 1.6527448 -0.14702369 255 0.84035319 0.5417195 -0.018616954 1.1775744e-05
-1.7985371 1.6078033 -0.16604999 255 0.8417964 0.53944719 -0.019380419 3.2575896e-05
-10.656796 1.7435107 -0.15174998 255 0.84239441 0.53851372 -0.019357156 0.00041293202
-6.8245068 1.7192079 -0.14297499 255 0.80575848 -0.5895896 -0.056013353 0.018262692
-1.9141543 1.7841504 -0.15077057 255 0.86758125 0.49711737 -0.013313049 0.0021920693
-1.8778409 1.7295479 -0.15493636 255 0.84052056 0.54143918 -0.019201627 2.3707134e-05
-10.728992 1.8524625 -0.1538 255 0.83719385 0.54626542 -0.026466357 0.00038684404
-10.698148 1.8087103 -0.15239999 255 0.83916777 0.54316044 -0.027826631 0
-7.0949035 1.8807198 -0.15089999 255 0.73200619 0.64392662 0.2225433 0.11280266
-1.9564053 1.8533751 -0.15022579 255 0.95010817 0.31171259 -0.01138975 0.034038678
-10.809834 1.9826064 -0.15004998 255 0.83583313 0.54852152 -0.022521719 5.0028277e-05
-10.790604 1.9464 -0.15303333 255 0.83390146 0.55151749 -0.020898622 0
-2.01368 1.9664822 -0.15031816 255 0.95506299 -0.29640308 -0.00022919731 0.10059608
-1.988957 1.980387 -0.14696667 255 0.86547947 -0.5009408 0.0018842345 0.067928158
-10.857564 2.0545118 -0.14429998 255 0.83685291 0.54697412 -0.022286052 0.00047466811
-1.9370071 2.0265996 -0.15040219 255 0.79119897 -0.61155879 0.00025126111 0.073310561
-1.8621693 2.0756521 -0.14989552 255 0.57055348 -0.82124984 0.0041629649 0.00047125638
-1.4150233 2.0646658 -0.14994194 255 0.28506997 -0.6764766 0.67905408 0.089160994
-1.3578994 2.0762248 -0.15814273 255 0.24881035 -0.74692708 0.61659819 0.069314338
-10.925896 2.1500728 -0.15154 255 0.84267014 0.53802639 -0.020848583 0.0011445067
-1.8123944 2.1079748 -0.14926997 255 0.53817058 -0.84277689 0.0099717565 2.8818233e-05
-1.7496313 2.148133 -0.14954668 255 0.50944537 -0.85960275 0.03935146 0.0065716556
-1.6831405 2.1900759 -0.15017617 255 0.43961847 -0.88305473 0.16416433 0.060308587
-1.5109277 2.1804421 -0.14934999 255 -0.45440793 -0.78788531 0.41563213 0.075412512
-1.4570202 2.1097326 -0.14184999 255 -0.36359486 -0.59502542 0.71675903 0.069395833
-1.3205624 2.1161776 -0.12752046 255 0.32704419 -0.68017226 0.65605468 0.079469964
-1.2516809 2.1479683 -0.15174465 255 0.51399672 -0.69529521 0.50236636 0.036341678
-1.1787072 2.1859689 -0.17165215 255 0.34172612 -0.75267118 0.56276929 0.050177097
-10.971433 2.2299495 -0.15545999 255 0.84489799 0.53465402 -0.017104728 0.0004495875
-5.9542232 2.2531719 -0.15028234 255 0.7111519 -0.70302796 -0.0038173564 0.0046513942
-5.8964348 2.2940669 -0.15267999 255 0.71666127 -0.69740522 0.0047545689 0.0045997445
-1.6350141 2.2220104 -0.15014321 255 0.15087667 -0.98228151 0.11117245 0.091497861
-1.5851218 2.2545295 -0.14510475 255 0.29378143 -0.93238324 0.21060371 0.11069872
-1.2106141 2.2088377 -0.1094625 255 0.43014047 -0.67240494 0.60237092 0.032368876
-1.1390971 2.2250485 -0.14055739 255 0.25475499 -0.55021423 0.79521328 0.052894868
-1.0528831 2.2603824 -0.15542291 255 0.22578353 -0.56309253 0.79495186 0.038822953
-0.96642327 2.2802796 -0.17833889 255 0.19247884 -0.58858079 0.7851907 0.010768785
-0.84001446 2.2775631 -0.18144457 255 0.38111365 -0.50725704 0.77294415 0.011214136
-0.79202211 2.292953 -0.19355999 255 0.51147783 -0.39962468 0.76071715 0.033207014
-5.8407974 2.3424265 -0.15219472 255 0.72512466 -0.6884656 -0.014465981 0.0047779996
-5.7973938 2.3826332 -0.12232499 255 0.7263099 -0.68718994 -0.015619663 0.0053878981
-1.4041979 2.3558731 -0.10164999 255 0.25875637 -0.45710236 0.85094219 0.1156157
-1.3600321 2.3947117 -0.1049 255 0.35774621 -0.29362196 0.88645577 0.10606505
-1.2870257 2.3230448 -0.10059999 255 0.30074221 -0.19013146 0.93456095 0.066260301
-1.023057 2.3114007 -0.11009471 255 0.1697782 -0.4469671 0.87829149 0.03170792
-0.94574344 2.3337302 -0.13873331 255 0.1925067 -0.47931144 0.85627192 0.018831018
-0.84811425 2.3525276 -0.14183298 255 0.3807843 -0.45288786 0.80616117 0.017457942
-0.78522199 2.3292875 -0.175194 255 0.54161698 -0.4008671 0.73888886 0.029999895
-5.802978 2.4211857 -0.16656666 255 0.72793764 -0.68555826 -0.010799468 0.004988227
-5.7982979 2.4192262 -0.12219999 255 0.72650069 -0.68698752 -0.015645273 0.0052760555
-1.3293279 2.4188569 -0.10183332 255 0.43253091 -0.65453309 0.62008345 0.094929747
-1.249017 2.4670808 -0.1021625 255 0.39377362 -0.64327347 0.65661383 0.09802565
-1.1711012 2.4256365 -0.10254999 255 0.043363679 -0.35710925 0.93305546 0.077900335
-0.83598471 2.4414864 -0.12131999 255 0.36030903 -0.29611188 0.88458765 0.03463554
-0.75434917 2.4638917 -0.15773407 255 0.52676654 -0.42576781 0.73568934 0.051191561
-0.68850321 2.4920006 -0.1890294 255 0.5343098 -0.61913943 0.57548183 0.022845754
-1.1528109 2.5329835 -0.10133333 255 0.26615182 -0.6130724 0.74384505 0.075118795
-0.88634026 2.5789816 -0.10399999 255 0.16932851 -0.29748163 0.93959171 0.056188658
-0.72525662 2.5181789 -0.11747142 255 0.39254543 -0.4165678 0.81998742 0.048862133
-0.6592375 2.5414672 -0.14973277 255 0.42003527 -0.57054424 0.70572627 0.034847308
-0.57615048 2.5822973 -0.17772777 255 0.52964449 -0.55072546 0.64511871 0.028729804
-0.93350708 2.6801641 -0.1085625 255 0.34391028 -0.33296007 0.87798816 0.085310549
-0.61952341 2.6098359 -0.11107777 255 0.41025624 -0.4359695 0.8010121 0.033822618
-0.54123008 2.6322756 -0.14701565 255 0.49711391 -0.57357222 0.65107048 0.02826974
-0.4625515 2.6743426 -0.16896561 255 0.46011734 -0.61530215 0.64007455 0.030866975
1.0277243 2.6893132 -0.10379999 255 -0.51736116 -0.17745151 -0.83716691 0.047353055
-0.75285029 2.7872114 -0.10109999 255 0.26509002 -0.41528016 0.87021244 0.085402608
-0.64252955 2.7541685 -0.10869999 255 0.45465609 -0.24707678 0.85571074 0.055074263
-0.58047104 2.7249646 -0.11229999 255 0.30977911 -0.23458965 0.92141449 0.023454797
-0.43200129 2.7215743 -0.14106059 255 0.3873848 -0.48030922 0.78691554 0.037045907
-0.35651982 2.7563159 -0.16818628 255 0.47260547 -0.61965352 0.62663668 0.052244335
-0.29005003 2.7900229 -0.18736666 255 0.45829874 -0.76123202 0.45878974 0.016052252
0.99371052 2.7883258 -0.10464999 255 -0.58773929 -0.10529332 -0.80216938 0.071784824
1.0204188 2.741118 -0.10742221 255 -0.53224874 -0.15898886 -0.83152503 0.054580156
-0.63786381 2.8687947 -0.10745384 255 0.52430999 -0.55173755 0.64860207 0.075530089
-0.52665567 2.8923042 -0.1234 255 0.36915779 -0.40239587 0.83773512 0.095217161
-0.43431309 2.8398099 -0.12605 255 0.2612412 -0.33056483 0.90690678 0.032680456
-0.32815611 2.8111141 -0.13683075 255 0.23724248 -0.46596628 0.85240328 0.059444197
-0.24408984 2.8364146 -0.16286246 255 0.4236888 -0.77752697 0.46469298 0.013581711
-0.15306731 2.8702168 -0.1663938 255 0.38953924 -0.64398205 0.65844226 0.054794814
-0.08608184 2.894942 -0.19397497 255 0.42819497 -0.78318834 0.45084921 0.017926829
0.38410041 2.8626969 -0.19373998 255 -0.089570433 -0.49938172 0.86173952 0.050484847
0.4435879 2.8550997 -0.1807774 255 -0.070393547 -0.51766288 0.8526839 0.054194428
0.55215472 2.8833418 -0.18077192 255 -0.14929326 -0.80965602 0.567599 0.15410686
0.97344345 2.8526802 -0.11529998 255 -0.57416093 -0.16767184 -0.80138969 0.15219028
1.187044 2.8846071 -0.16683333 255 -0.36963758 -0.028843511 -0.92872822 0.028188273
1.2381426 2.8654759 -0.17119999 255 -0.31767932 -0.042710673 -0.94723576 0.019958459
-0.5493446 2.9320707 -0.11058421 255 0.58391988 -0.67570847 0.4499507 0.066056445
-0.47737315 2.9806166 -0.11730833 255 0.42336994 -0.69793779 0.57761633 0.091811143
-0.11887431 2.9129546 -0.13925712 255 0.22671096 -0.75266343 0.61814231 0.062455148
-0.048657246 2.9386508 -0.16151065 255 0.28463364 -0.82096481 0.49497518 0.048129637
0.0494387 2.9805782 -0.15843435 255 0.10720474 -0.89554286 0.43186811 0.064639166
0.15183493 2.9421988 -0.15046364 255 -0.14237362 -0.87890625 0.45525116 0.054287598
0.24978843 2.9498091 -0.15208736 255 -0.04779781 -0.79059649 0.61046916 0.083145551
0.32276028 2.9808621 -0.17483912 255 0.15889424 -0.46389845 0.87152207 0.076636903
0.47551304 2.9100788 -0.15139998 255 -0.24952692 -0.56322974 0.7877236 0.11705682
0.85034013 2.9620173 -0.14042197 255 -0.68731123 -0.6590209 -0.30544204 0.14838925
0.96708143 2.9054627 -0.11134999 255 -0.56745368 -0.196009 -0.79973549 0.14689399
1.0689203 2.960072 -0.130925 255 -0.27906358 -0.1594048 -0.94694966 0.078808837
1.1673119 2.9378028 -0.13940434 255 -0.34057903 -0.04911527 -0.93893224 0.034029413
1.2222202 2.9337363 -0.13872997 255 -0.34965897 -0.072519951 -0.93406618 0.026536539
-0.42811847 3.0130508 -0.11507857 255 0.50253779 -0.63134748 0.59064037 0.082047984
-0.34928793 3.0647261 -0.12047645 255 0.50370955 -0.76217365 0.40665472 0.053783193
-0.25896326 3.0702095 -0.13655999 255 0.21361127 -0.4266687 0.8788197 0.086514533
-0.11782032 3.0345354 -0.12759998 255 -0.26411468 -0.50617945 0.82099068 0.066358566
0.056073874 3.0149889 -0.13856497 255 -0.062443428 -0.91669554 0.39467716 0.042833213
0.10719056 3.012929 -0.19759999 255 -0.089443274 -0.93334538 0.34765834 0.051673751
0.29479837 3.0103037 -0.10999999 255 0.42567271 -0.6821906 0.59449029 0.0065396745
0.35992143 3.0373862 -0.14173684 255 0.38427314 -0.48415139 0.78608626 0.069633074
0.42234963 3.0745857 -0.15966818 255 0.33935371 -0.36966997 0.86497581 0.059079684
0.79589635 3.0344305 -0.11489999 255 -0.73301858 -0.579916 -0.35550138 0.16347268
0.82167065 3.0285332 -0.15835711 255 -0.88619995 -0.41599354 -0.20395857 0.17051968
0.96887708 3.0603194 -0.1497222 255 0.2812376 -0.55587232 -0.7822476 0.1399046
1.0394392 3.0464118 -0.1497 255 0.16962987 -0.38750049 -0.9061287 0.19895801
1.14827 3.0945466 -0.14523332 255 -0.11022155 -0.073183313 -0.99120915 0.14041761
-0.25380695 3.129468 -0.11531922 255 0.40200073 -0.60950953 0.68329608 0.09531495
-0.17297578 3.1802108 -0.11815832 255 0.51142108 -0.81918609 0.2595818 0.11039445
0.39600903 3.1003983 -0.11309999 255 0.4965744 -0.49112374 0.71568948 0.049068205
0.43376288 3.1170878 -0.13179 255 0.3765561 -0.52975398 0.75997782 0.048659034
0.78951007 3.1948678 -0.12143332 255 -0.95910305 0.034285042 -0.2809732 0.1532502
0.82177818 3.1464255 -0.16981427 255 -0.94889605 -0.0079317139 -0.31548914 0.1323179
0.9856618 3.151912 -0.17989998 255 0.42895395 -0.73547083 -0.52448183 0.16091895
1.0756493 3.1520846 -0.16530624 255 0.47588789 -0.66953164 -0.57031411 0.20381711
1.1428105 3.1254542 -0.16736798 255 0.29667452 -0.21001618 -0.93159938 0.15346381
1.2355919 3.1535404 -0.17234999 255 -0.5515433 0.055257436 0.83231401 0.18492363
-0.12356432 3.2152503 -0.11455453 255 0.59975994 -0.78234905 -0.16798221 0.17775872
-0.051608127 3.2611544 -0.11739565 255 0.6404193 -0.48291644 -0.59720594 0.18785851
0.0086808596 3.2847462 -0.11892498 255 0.56373674 -0.35541794 -0.74557287 0.18427315
0.44407955 3.2155478 -0.11799999 255 0.55495256 -0.43153077 0.71120238 0.017010391
0.81872475 3.2466469 -0.15787999 255 -0.72083187 -0.61577219 -0.31816038 0.2300996
0.97560745 3.2583752 -0.17588331 255 -0.10887195 -0.9511286 -0.28896597 0.1892478
1.0472345 3.223655 -0.17645 255 0.62810284 -0.43277469 -0.64667827 0.19089986
1.1775327 3.2553694 -0.19744998 255 -0.3807216 -0.91793537 -0.11156005 0.21023618
1.2500914 3.2429543 -0.17039998 255 0.62421751 -0.64799118 -0.43641698 0.17489968
0.021221092 3.3038318 -0.10969999 255 0.73510551 -0.47633767 -0.48241284 0.12489792
0.63383216 3.3700769 -0.16708332 255 -0.52981538 -0.8130365 -0.24138656 0.25983876
0.84187198 3.3074114 -0.13309999 255 0.071576416 -0.9450984 -0.31885085 0.24649309
1.0307703 3.3384664 -0.14003332 255 -0.33150652 -0.94001859 0.080427207 0.23276134
1.324212 3.3987124 -0.19769998 255 0.44926608 -0.75538665 -0.47702295 0.14597328
1.7539577 3.3895605 -0.12237777 255 0.052307036 -0.99521434 0.082537435 0.069187023
-8.1385098 3.4604568 -0.15264998 255 0.83819997 0.54522491 -0.012271665 0.00049431442
0.62560159 3.4246283 -0.12892219 255 -0.78028011 -0.62474823 0.029200144 0.10122283
1.7399249 3.4157379 -0.12693332 255 0.052307073 -0.99521428 0.082537457 0.069187023
-8.2250919 3.5983567 -0.15994999 255 0.84025562 0.54194498 -0.016314637 0.00014325418
-8.1843252 3.5293014 -0.15546666 255 0.84113151 0.54056931 -0.016812036 0.00011499516
0.66302979 3.5815897 -0.18939999 255 0.58417779 -0.19164346 0.78867555 0.091386437
0.86837465 3.5652833 -0.12379999 255 -0.59249407 -0.19655003 -0.78122908 0.17630149
1.0737102 3.5349574 -0.13589999 255 -0.95979387 -0.20412925 -0.19268358 0.19193466
-8.2705307 3.6615264 -0.15184285 255 0.84339929 0.53697383 -0.018351072 1.0776874e-05
0.55539829 3.6564302 -0.14184996 255 0.67969924 -0.49386367 0.54231685 0.10322998
0.61418301 3.6910822 -0.13754284 255 0.55381852 -0.82125443 0.13720877 0.026521707
0.93901962 3.6332936 -0.1151 255 -0.77561677 -0.48457766 -0.40447891 0.1588587
-8.3363905 3.7670422 -0.14738332 255 0.84283453 0.53802156 -0.012755104 0.00056636153
0.65038335 3.7166162 -0.16764998 255 0.58866417 -0.80426234 0.081464864 0.029432718
0.74538356 3.7840347 -0.14111249 255 0.47763139 -0.87854511 0.0051709549 0.030745687
0.94575113 3.7695706 -0.15159999 255 0.86630726 -0.29273787 0.40474215 0.21338062
-8.427248 3.8992901 -0.13274999 255 0.84896702 0.52823669 -0.014865308 0.00010296814
-8.3806314 3.8394909 -0.14486665 255 0.84777361 0.53019607 -0.013118522 0.00041662477
0.7832216 3.8079832 -0.14409091 255 0.49751136 -0.86741966 -0.0080997273 0.033280265
0.84255075 3.8464653 -0.15191248 255 0.46896735 -0.88064063 -0.067392603 0.037813511
0.91127074 3.889086 -0.15458569 255 0.48315197 -0.87542278 0.014111553 0.091219172
1.1855793 3.860491 -0.15779999 255 0.52387321 -0.64713722 0.55386841 0.12095287
-8.4367876 3.9267988 -0.15449999 255 0.84913623 0.52796513 -0.014846237 0.00023999355
0.95018226 3.9111476 -0.16617998 255 0.56098485 -0.82562214 0.060366135 0.077398546
1.0025539 3.9435296 -0.11009999 255 0.4583112 -0.88877803 0.0049451455 0.069480665
1.26438 4.0915165 -0.16854998 255 0.61773485 -0.78611869 -0.020520413 0.034094319
1.3468332 4.076827 -0.12049999 255 0.67137218 -0.74080509 -0.021618156 0.029548343
1.2772827 4.1294885 -0.14244443 255 0.66393679 -0.74766159 -0.013785506 0.030280475
1.3320098 4.1566377 -0.13142499 255 0.5964343 -0.80263305 0.0068066511 0.0084249116
1.8845378 4.5615587 -0.17719999 255 0.53586787 -0.83875448 -0.096625581 0.041699797
1.9043894 4.5611663 -0.18006665 255 0.53586829 -0.83875418 -0.096626125 0.041699778
2.8764253 -7.7734499 -0.051076915 255 0.17630149 0.98389757 0.029381828 0.085514665
2.9436209 -7.7580314 -0.050855 255 0.0022535862 0.99873567 -0.050220288 0.081773281
3.0102561 -7.7162848 -0.056224994 255 -0.40972999 0.91164076 -0.032131989 0.022713808
2.7731514 -7.6325336 -0.046675 255 0.79668456 0.6042856 -0.011518932 0.0066167898
2.8160298 -7.6926966 -0.029049998 255 0.59703755 0.80130613 0.038138289 0.051751357
3.0598614 -7.6824322 -0.043599997 255 -0.51815003 0.85514802 -0.015566465 0.001045577
3.1455035 -7.6270156 -0.048079994 255 -0.55085135 0.83449757 -0.013290602 0.00055042125
2.7277844 -7.5631471 -0.053466663 255 0.83861852 0.54435647 -0.019875623 4.6096826e-05
3.2429233 -7.5622473 -0.050457139 255 -0.5521487 0.83363205 -0.013764379 0.00015683623
3.3151124 -7.5132618 -0.048933327 255 -0.5525198 0.833345 -0.016063217 0.00095234904
2.6679146 -7.4691534 -0.050785713 255 0.83829319 0.54480773 -0.021190986 0.00011998949
3.3761106 -7.4739637 -0.047079995 255 -0.55121607 0.83419108 -0.016914239 0.00074867101
3.4482174 -7.4258294 -0.053369991 255 -0.54581422 0.83770514 -0.018354818 0.00033259619
2.5768526 -7.3325691 -0.050499994 255 0.83635557 0.54773104 -0.02236072 0
2.6182213 -7.3902931 -0.051499993 255 0.83475405 0.55014658 -0.022901025 0
3.4993386 -7.3945065 -0.048649997 255 -0.54485893 0.83829659 -0.019689212 0
3.5601873 -7.3549943 -0.048333328 255 -0.54506618 0.83814663 -0.02032184 6.9233807e-05
3.6223004 -7.3140244 -0.059839994 255 -0.54573262 0.83772576 -0.01978299 0.00030604558
2.4964445 -7.2075157 -0.071333326 255 0.83617616 0.54808742 -0.020240715 0.00013317584
2.5299356 -7.2605476 -0.043424997 255 0.83606464 0.54817879 -0.022270525 5.1470774e-06
3.6691022 -7.2831421 -0.047162496 255 -0.54676867 0.83706713 -0.019044539 0.00014398848
3.7503722 -7.2294483 -0.048708331 255 -0.54426235 0.83871996 -0.018089993 0
2.4622135 -7.154635 -0.048275001 255 0.83641803 0.54762679 -0.022577437 5.5904715e-05
3.846952 -7.1672869 -0.049049996 255 -0.54636866 0.83749074 -0.0095186355 0
3.9191902 -7.1204362 -0.050449997 255 -0.54061967 0.84119171 -0.011266292 0.00039074011
2.3776503 -7.025713 -0.059874997 255 0.83648735 0.54759836 -0.020612821 0
2.41377 -7.0828819 -0.049066663 255 0.83664417 0.54730397 -0.022021338 0.00012562094
3.9646089 -7.0893593 -0.049271423 255 -0.53542238 0.84448087 -0.013229643 0.00012364521
4.0407228 -7.0460243 -0.063116662 255 -0.53368568 0.84546411 -0.019238258 0.000124723
4.1011715 -7.005909 -0.057866663 255 -0.53180349 0.8465817 -0.022010313 0.00012124008
2.3277917 -6.9510918 -0.049441665 255 0.83759725 0.5459739 -0.018532278 5.474003e-05
4.1653819 -6.9650373 -0.075657137 255 -0.53070772 0.8471995 -0.024540775 0
4.2530999 -6.9108987 -0.074066661 255 -0.53624105 0.84393924 -0.014565433 0
2.2526681 -6.8356643 -0.044085711 255 0.83835953 0.54484838 -0.017131723 3.0129313e-05
4.292769 -6.8875756 -0.081399992 255 -0.53517318 0.84464484 -0.012832939 4.206672e-05
4.3539124 -6.8485236 -0.088924997 255 -0.53549767 0.84446883 -0.010700299 0.00063355931
4.4130917 -6.8096528 -0.094099991 255 -0.53754401 0.84316897 -0.010606597 0.00057557435
2.192261 -6.7397432 -0.056899998 255 0.83920443 0.54351217 -0.018180178 0.00010972387
2.213727 -6.7754102 -0.048074998 255 0.83892709 0.54395866 -0.017614117 2.8527425e-05
4.4690304 -6.7748356 -0.077024996 255 -0.54052895 0.8412689 -0.009750912 0.00017560368
4.5507331 -6.7223096 -0.07334999 255 -0.54092252 0.84105349 -0.0056480234 0
2.1380532 -6.6584258 -0.054274995 255 0.84044248 0.54159212 -0.018286653 5.2918393e-05
4.6442685 -6.6599646 -0.053723074 255 -0.54425806 0.838907 -0.0042591519 0
4.7149248 -6.6160655 -0.059583325 255 -0.54506063 0.83836359 -0.0074535697 0.00010353639
2.0674179 -6.5483818 -0.0493 255 0.84145498 0.54004157 -0.017567562 0
4.775939 -6.5768571 -0.050687496 255 -0.54462111 0.83863741 -0.008664473 1.2455391e-05
4.8491626 -6.5278983 -0.04990999 255 -0.54995149 0.8351264 -0.010822549 0
1.9873625 -6.4206848 -0.042399995 255 0.83747017 0.54620212 -0.017516853 1.7517061e-05
2.0158613 -6.4661779 -0.042571425 255 0.84039098 0.54172617 -0.016608365 0
4.8938317 -6.4990578 -0.050333325 255 -0.54847407 0.83610106 -0.010544328 0
4.9510279 -6.4608965 -0.048742857 255 -0.54799753 0.83640391 -0.011279936 0
5.0267658 -6.4106736 -0.047466666 255 -0.54599184 0.83773136 -0.009950907 0
7.0849242 -6.4632063 -0.06945999 255 -0.92724866 0.37294215 0.033529811 0.012377529
7.1176291 -6.4297819 -0.074949995 255 -0.87576497 0.47952384 0.055610914 0.018684546
1.9446774 -6.3585863 -0.049823072 255 0.83687514 0.54706997 -0.018827492 0
5.0749049 -6.379261 -0.047225002 255 -0.54737693 0.83681458 -0.010942459 0
5.1444573 -6.3353148 -0.046257138 255 -0.54749173 0.8367191 -0.012410075 0
0.2642892 -6.2636337 -0.046364281 255 -0.76485348 0.25222299 0.5927754 0.01501729
0.33469507 -6.2238116 -0.046523072 255 -0.76505786 0.25210151 0.59256345 0.015019526
1.8776214 -6.2559686 -0.047384612 255 0.83506721 0.5496735 -0.022841733 8.1043385e-05
5.2453728 -6.2683702 -0.054978568 255 -0.54914433 0.83560127 -0.014524748 0
5.3183084 -6.2211461 -0.045933332 255 -0.55474317 0.83185101 -0.01684894 0
0.28373376 -6.1867309 -0.097599991 255 -0.85038066 0.1932441 0.48939708 0.015188395
0.30486545 -6.137558 -0.099799991 255 -0.88742793 0.16858938 0.42900965 0.016912
1.7867738 -6.1199455 -0.059933335 255 0.833103 0.55244577 -0.027259225 0
1.8195732 -6.1671205 -0.049374994 255 0.8336038 0.55174553 -0.026107555 1.137789e-05
5.3658285 -6.1893516 -0.051424999 255 -0.55681169 0.83047444 -0.01652104 0.00030008351
5.4376178 -6.1400127 -0.052087497 255 -0.56236792 0.82676691 -0.014104108 0
1.7470189 -6.0590835 -0.05126363 255 0.83290756 0.55271173 -0.027835147 0
5.4984436 -6.0992813 -0.049199998 255 -0.56797123 0.82297665 -0.010862815 0
5.5615187 -6.0560999 -0.048815377 255 -0.56982416 0.82174361 -0.0061496422 0.00069102144
5.6171851 -6.0162559 -0.046966661 255 -0.5734933 0.81920069 -0.003954377 0
7.7830315 -6.0004539 -0.085199989 255 -0.5668838 0.82376069 -0.0078142639 0.00085827784
1.6692518 -5.9430246 -0.053879995 255 0.83228022 0.55376661 -0.025535474 4.6948124e-05
1.7062638 -5.9949121 -0.048559994 255 0.83244199 0.55341434 -0.02780317 0
5.6666813 -5.981596 -0.048577771 255 -0.53369814 0.84548545 -0.017906884 0.0051485565
5.7424731 -5.9293466 -0.049774989 255 -0.46065509 0.88754797 -0.0074454416 0.0083819758
5.8377047 -5.9069691 -0.048149996 255 -0.47783771 0.87781233 -0.033416349 0.0097834319
7.77811 -5.9966307 -0.033499997 255 -0.57111692 0.82077479 -0.012417931 0.0010319774
7.8488922 -5.9440351 -0.046309087 255 -0.56948578 0.82197499 -0.0065581314 0.00011547114
0.96271259 -5.8157172 -0.013233333 255 -0.5550788 0.38870576 0.73538798 0.048911694
1.5914605 -5.8286057 -0.040860001 255 0.83269447 0.55319864 -0.024314007 0.00015501458
1.6174564 -5.8627734 -0.048255548 255 0.831595 0.55492103 -0.022632658 4.9302424e-05
5.7853527 -5.8975792 -0.044349995 255 -0.43831661 0.89882016 -0.00092844968 0.0088180266
5.8745961 -5.8824573 -0.049799997 255 -0.5101583 0.85904473 -0.042198461 0.0098715937
7.9579029 -5.8706141 -0.054899998 255 -0.5641529 0.82557422 -0.012593322 6.2562809e-05
8.0333118 -5.819943 -0.049883332 255 -0.56239623 0.82672399 -0.015422114 0
0.99386615 -5.7840738 -0.08039999 255 -0.64047205 0.22473906 0.7343623 0.047188349
1.0428032 -5.7595134 -0.053116664 255 -0.64054048 0.22467989 0.73432064 0.047195211
1.1057997 -5.7212791 -0.050349995 255 -0.52791834 0.27065191 0.80501544 0.041397601
1.541077 -5.7468982 -0.055610526 255 0.83845544 0.54415089 -0.029870836 0.00021806046
5.9769149 -5.7980466 -0.042499993 255 -0.57884181 0.81527299 -0.016495241 0.0046874085
6.0149112 -5.7761226 -0.054899994 255 -0.60997993 0.79238707 -0.0068614506 0.0020530538
6.4440589 -5.7788992 -0.010999999 255 -0.64298856 0.76066524 0.089185394 0.041539263
8.0841017 -5.7907214 -0.059499998 255 -0.54636639 0.83739156 -0.01609819 0.00040814924
8.1442442 -5.7487469 -0.043655552 255 -0.54110396 0.84076327 -0.017990924 0.0013242208
8.2083673 -5.7044983 -0.041766662 255 -0.5399642 0.84164131 -0.0088739414 0.00022164144
1.0920563 -5.6506567 -0.079999991 255 -0.21436673 0.4869256 0.84672928 0.053433422
1.4614917 -5.6272674 -0.046959996 255 0.85094619 0.52009791 -0.073409073 0.00072172738
1.5023472 -5.689631 -0.039774995 255 0.84327358 0.53324795 -0.067351721 0.00094603753
6.3712792 -5.6339731 -0.048957139 255 -0.48187244 0.87392277 0.063701965 0.040866308
8.2640648 -5.6720252 -0.04447142 255 -0.55305952 0.83310461 -0.0078604436 0.0011130571
8.336669 -5.6242709 -0.045385711 255 -0.55240935 0.83357012 -0.0021766722 0.0013406856
1.393837 -5.5267177 -0.071799994 255 0.85903168 0.50653273 -0.074089505 0.00081263465
1.4287711 -5.5699396 -0.046359997 255 0.85218817 0.51767772 -0.076059468 0.00071103481
6.4301844 -5.5894899 -0.049719997 255 -0.44633242 0.8916201 0.076163858 0.042171691
8.3815899 -5.5905228 -0.068599999 255 -0.56321263 0.8263104 -0.0016267428 0.0016084788
8.4582987 -5.5471673 -0.048589993 255 -0.56371212 0.82595611 0.0050204266 0.001322746
1.3605517 -5.4409084 -0.040724996 255 0.84551179 0.53098071 0.056295339 0.016025845
8.5131712 -5.4856243 -0.07289999 255 -0.5658592 0.82445019 0.0092327958 0.0019288292
1.2812374 -5.3155966 -0.050859995 255 0.76648945 0.6275264 0.13676417 0.039374821
1.3127073 -5.36274 -0.050816659 255 0.80128777 0.58595937 0.12078658 0.038503967
1.153909 -5.2289929 -0.0038499997 255 0.76483256 0.59354544 0.25046942 0.028231092
1.237887 -5.2488322 -0.052818179 255 0.74978644 0.63215828 0.19543871 0.023424132
1.0729935 -5.1285458 -0.051166661 255 0.72012883 0.65861171 0.21827735 0.01922727
1.1502229 -5.1557851 -0.051609088 255 0.73599124 0.64594793 0.20265281 0.012007034
0.98770297 -5.0121093 -0.043674998 255 0.77067196 0.63555014 0.046266962 0.024592649
1.0060707 -5.0157485 -0.048866663 255 0.73198432 0.67053425 0.12075888 0.025610697
1.1247866 -5.0945187 -0.095749989 255 0.71204931 0.6640408 0.22811294 0.016468074
0.95491064 -4.985682 -0.047599997 255 0.78938234 0.61033064 0.066120647 0.023553587
0.87018913 -4.8191829 -0.076824993 255 0.85731006 0.51384199 -0.03139941 0.0069279722
0.91837454 -4.8741422 -0.020466665 255 0.85642076 0.51464564 -0.041028272 0.0030463864
5.1644778 -4.8699412 -0.053024992 255 -0.54230762 0.84002316 -0.016234761 0.00035314701
5.2062707 -4.840704 -0.038524993 255 -0.53950131 0.84187955 -0.013311276 0.00038048468
0.78921515 -4.7096696 -0.020799998 255 0.85004866 0.52456897 -0.047377292 0.00091632758
0.81287259 -4.70645 -0.021566665 255 0.85000312 0.524643 -0.047375482 0.00090166565
-5.7863989 -3.916738 -0.056537494 255 -0.44143754 0.89661509 -0.034845341 0.011428445
-5.8288002 -3.8573899 -0.049129404 255 -0.4958626 0.86716747 -0.046268351 0.017805036
-5.3661103 -3.6741681 -0.049774993 255 -0.47978541 0.82471097 0.29942909 0.071055166
4.3384104 -3.6382859 -0.050969996 255 -0.75364476 -0.63473135 -0.17069219 0.025463963
-5.9699707 -3.0064979 -0.041474998 255 0.68406093 0.7038278 0.19153871 0.015771104
-4.8448162 -3.0105488 -0.046744443 255 0.47246298 0.86249918 0.18131162 0.050549325
-4.7096715 -3.0548136 -0.063299991 255 0.021080783 0.93849617 0.34464565 0.084949136
-4.6975088 -3.0469632 -0.038599998 255 -0.15674868 0.97407568 0.16311511 0.080085844
-5.9824934 -2.9861372 -0.048420001 255 0.68400216 0.70387971 0.19155784 0.015809268
-4.923564 -2.9247122 -0.052588236 255 0.74627179 0.66536218 -0.019277582 0.0059645227
-4.8774934 -2.9727628 -0.046546664 255 0.61516374 0.78249139 0.096337035 0.016761169
-4.5877752 -2.9525261 -0.051720001 255 -0.51926363 0.84810048 0.10531271 0.061737873
-5.0161109 -2.8144996 -0.043639995 255 0.88460016 0.42591745 -0.18993917 0.070373639
-4.9741797 -2.8658926 -0.047214288 255 0.84076905 0.52825731 -0.11853931 0.043995317
-4.4673038 -2.8537061 -0.038939994 255 0.83125043 -0.52505362 -0.18259645 0.082441106
-3.249965 -2.8291762 -0.039733332 255 0.30462313 0.95200366 -0.029893914 0.2115128
-2.9705064 -2.8149464 -0.038166661 255 -0.15852773 0.98638719 -0.043694969 0.14134894
-5.0400224 -2.7762396 -0.044499997 255 0.88474774 0.4256534 -0.1898441 0.070377499
-4.3917394 -2.7726884 -0.046069998 255 0.47785762 0.15776354 -0.86415434 0.20869859
-3.1646285 -2.7739308 -0.037659999 255 0.33778563 0.79196107 -0.50862408 0.19877501
-3.0341067 -2.7569604 -0.035749994 255 -0.33503923 0.93156594 0.14118651 0.13126263
-2.9853384 -2.7312074 -0.03466 255 -0.30681458 0.79334074 -0.52580917 0.17495613
-2.8429692 -2.741297 -0.05041153 255 -0.031010538 0.97913796 -0.20081617 0.20030788
-2.7844174 -2.7334938 -0.048457142 255 -0.27270201 0.96209002 0.004064302 0.11205965
-2.9774079 -2.6470284 -0.050759993 255 0.96987319 -0.18763199 0.15537134 0.19705191
-2.8476424 -2.6494684 -0.057341661 255 0.69005215 0.70637953 0.15765798 0.16529243
-2.7188523 -2.6888192 -0.047099996 255 -0.25564069 0.96628112 -0.030800644 0.091501184
-2.6395829 -2.6365156 -0.05166667 255 -0.47067493 0.88219845 -0.013818262 0.017335625
-3.6404512 -2.5313132 -0.046841174 255 -0.10370541 0.9701075 0.21940038 0.00017174156
-3.5513802 -2.52338 -0.050390903 255 -0.10777193 0.97127026 0.21217756 0.00012911712
-3.4544561 -2.5132451 -0.043488231 255 -0.11245315 0.97067773 0.21245974 0.00014551237
-3.3704071 -2.508007 -0.025549999 255 -0.12048024 0.96926969 0.21447773 0.00011128767
-3.2841332 -2.5017154 -0.011249999 255 -0.13290317 0.96899194 0.20830612 0.00012821324
-2.9208181 -2.5179145 -0.051939987 255 0.77187717 0.63120645 0.076052979 0.069832504
-2.886024 -2.5798242 -0.052968748 255 0.91173881 0.40851581 0.042977683 0.10455406
-2.5427568 -2.5769389 -0.048787501 255 -0.53976798 0.84170467 -0.013554668 5.7810157e-05
-2.4554513 -2.5203509 -0.057341661 255 -0.5408479 0.84102511 -0.012658134 7.02427e-06
-4.704237 -2.410897 -0.050799996 255 -0.39031285 0.89004302 0.23554038 0.090123489
