# .PCD v0.7 - Point Cloud Data file format
VERSION 0.7
FIELDS x y z intensity normal_x normal_y normal_z curvature
SIZE 4 4 4 4 4 4 4 4
TYPE F F F F F F F F
COUNT 1 1 1 1 1 1 1 1
WIDTH 566
HEIGHT 1
VIEWPOINT 0 0 0 1 0 0 0
POINTS 566
DATA ascii
-13.764834 0.6054824 -0.24050812 42.599998 0.85007191 -0.047367018 -0.52453226 0.18022475
-13.590775 0.72177672 -0.23756215 46 0.8931185 -0.041028533 -0.44794643 0.15573952
-6.9355388 0.60798872 -0.3649233 27.17647 0.050390515 -0.054547645 0.99723893 0.00023624529
6.2787085 0.75810575 -0.33144364 6 -0.14066221 -0.06847629 0.98768675 0.0010212926
17.755964 0.73798984 -0.31019905 16 -0.49483785 -0.72254592 -0.48276603 0.11617
-14.306975 1.1586481 -0.25054675 42 0.28871018 0.11454903 -0.95053929 0.12063722
-13.79327 0.97245663 -0.24136679 24.333334 0.34237337 0.062688448 -0.93747038 0.1509075
-13.584081 0.91020799 -0.2376436 43.666668 0.88272417 0.010764498 -0.46976829 0.15031654
-6.8556347 0.90255338 -0.36240038 27 0.13484174 -0.10410483 0.98538315 0.017177831
-6.6583967 1.0898511 -0.3536132 23.6 0.059109371 -0.059584286 0.99647164 0.0002598287
5.7319713 1.1839074 -0.30674106 2 -0.043728765 -0.043927815 0.99807721 0.0021227789
14.651842 1.147902 -0.25653291 39.5 -0.55369616 -0.64097756 -0.53157157 0.098996632
16.059731 0.94568694 -0.28080922 8 -0.3151435 -0.68199754 -0.65997261 0.037602399
16.789515 0.81821078 -0.29340985 32 -0.26524535 -0.6598289 -0.70304382 0.053887822
17.711189 0.80116212 -0.30946606 8 -0.49483886 -0.72254586 -0.48276493 0.1161695
-14.9177 1.5469389 -0.2617861 33 0.24940602 0.2990568 -0.92106551 0.086985484
-14.544357 1.3585396 -0.25497967 55.25 0.25258633 0.18298654 -0.95011371 0.10310891
-14.19496 1.3961718 -0.24899349 34.5 0.30659181 0.19885744 -0.9308368 0.09474352
-6.5561614 1.2848283 -0.35014066 21.75 0.062698148 -0.062550373 0.99607044 0.00021430432
-6.2662101 1.4783936 -0.33744732 27.571428 0.060681544 -0.059070468 0.99640769 0.0002192347
14.596758 1.3724356 -0.25591713 50 -0.39698511 -0.62272376 -0.67425364 0.11135215
-15.738914 1.8805027 -0.27667883 28.333334 0.74309975 0.59176213 0.31244275 0.16326465
-15.59298 1.9753835 -0.27435184 46 0.76605386 0.62578315 0.1468229 0.13821964
-14.796116 1.6125982 -0.25979653 29 0.32248276 0.28917316 -0.90132338 0.036827616
-6.0645504 1.654775 -0.3294549 26.666666 0.050637022 -0.053121991 0.99730331 9.362695e-05
-5.9576159 1.8505232 -0.32697266 24.142857 0.054124415 -0.058593381 0.99681354 7.7382581e-05
13.161985 1.9107416 -0.23215191 50.5 -0.68849236 -0.50980979 -0.51582193 0.12123708
13.22414 1.919911 -0.23325141 35.5 -0.68849236 -0.50980979 -0.51582193 0.12123708
14.257337 1.8769145 -0.25101215 23.333334 -0.12804617 -0.6235252 -0.77124608 0.10696071
14.703897 1.6395801 -0.25824907 60.333332 -0.34170017 -0.6495145 -0.67924368 0.10535173
14.803783 1.7573882 -0.26021537 59 -0.43216205 -0.5860194 -0.68543214 0.088434167
15.266481 1.9746372 -0.26869726 30 -0.50858802 -0.59034991 -0.62675774 0.077251859
-16.076721 2.32142 -0.28353181 18.666666 0.77367473 0.50624824 0.38097259 0.14256655
-15.703846 2.099179 -0.27655086 39 0.79208148 0.59586257 0.1324943 0.14849365
-15.24378 2.3353381 -0.2691859 26 0.70718122 0.61664671 -0.34589252 0.12151781
-8.9663343 2.2677207 -0.16143975 17.142857 0.12099163 -0.38989201 -0.91287744 0.14343764
-8.1120529 2.2926753 -0.14714473 7.8000002 0.63369948 -0.55644077 -0.53739977 0.19884904
-7.9126816 2.1468608 -0.14310974 2 0.62457454 -0.56903988 -0.53488338 0.15466413
-5.8753419 2.2017984 -0.32888472 22.842106 0.054322191 -0.059461337 0.99675143 8.2450097e-05
5.1235094 2.1426134 -0.21312782 25.6 -0.013467988 0.00079312472 0.99990898 0.0035649016
13.043745 2.1032491 -0.23062308 54.200001 -0.83817315 -0.43654794 -0.32694295 0.1074483
-16.124075 2.5566857 -0.28496289 24 0.8130464 0.47428778 0.33764887 0.18524264
-15.697662 2.6789901 -0.27797028 31.666666 0.50369269 0.81126523 -0.29688805 0.16747881
-15.580005 2.6127927 -0.27574801 31 0.58608514 0.68905461 -0.42627224 0.11724042
-9.264616 2.4789786 -0.16740347 3 -0.014950247 -0.30426654 -0.95246965 0.096132025
-8.4645529 2.7454009 -0.15532643 10 0.1554127 0.098793387 -0.9828971 0.10906681
-8.2344732 2.5301445 -0.15036994 16.5 0.37746271 -0.05600629 -0.92432958 0.14765099
-7.9270968 2.7869067 -0.14667003 12 0.80353189 0.17114273 -0.57012874 0.13866861
-5.6782436 2.5194812 -0.32559949 21.066668 0.058461756 -0.060275994 0.99646831 6.0027938e-05
-5.4505558 2.7254019 -0.31938893 18.761906 0.062921442 -0.058033522 0.99632978 5.2579078e-05
3.4858201 2.6574132 -0.38348529 2 -0.00081196247 0.016317779 0.99986649 0.0012017005
3.704514 2.6545665 -0.39873752 4 0.0035941014 0.012664762 0.99991328 0.0012343846
12.765607 2.7950268 -0.22810295 12 -0.46460831 -0.77676737 -0.42517236 0.14727318
13.075381 2.5060475 -0.23238751 36.25 -0.73851514 -0.47250411 -0.48097315 0.13771108
13.225203 2.4153495 -0.23466507 39 -0.70744497 -0.48336542 -0.51563495 0.13042894
13.80646 2.7713387 -0.24579969 27 -0.38004151 -0.35878035 -0.85255212 0.13138996
14.558969 2.5566647 -0.25801638 50 -0.18474369 -0.42316473 -0.88701826 0.11221215
-15.68808 2.8538866 -0.27833098 31.5 0.52547532 0.75642574 -0.38948151 0.12182424
-15.464845 2.9807301 -0.2749103 13 0.52546006 0.75643051 -0.38949269 0.12182964
-8.9224224 3.0742407 -0.16472976 28.4 0.39356259 0.055021279 -0.91764981 0.086623706
-8.5706959 2.9943874 -0.15849403 19.25 0.23220123 0.0440109 -0.97167158 0.056152198
-5.2982116 2.8863392 -0.31621385 16.736841 0.062920459 -0.058032956 0.9963299 5.2642219e-05
-5.0433393 3.0779438 -0.30968493 14.875 0.061942723 -0.057936579 0.99639666 5.2421299e-05
3.5454061 2.8812742 -0.39969626 3 -0.00052784564 0.019455474 0.99981052 0.001165512
11.757962 3.073103 -0.212134 47.666668 -0.62154686 -0.63191158 -0.46299806 0.10331098
12.700797 2.9207945 -0.22748339 40.25 -0.51658022 -0.82634866 -0.2242606 0.10206995
12.891286 3.0755417 -0.23133747 27 -0.52223665 -0.78831095 -0.32532245 0.13562036
-17.101393 3.5135806 -0.30474231 26.666666 0.54456371 0.82670152 0.14147405 0.056341752
-9.2080936 3.453759 -0.17166187 12 0.69010723 0.027841795 -0.72317141 0.12654112
-9.0526457 3.3738463 -0.16864842 22 0.61837184 -0.041999642 -0.78476256 0.11174848
-8.5445013 3.3757446 -0.16037264 18.142857 0.39437136 0.13267496 -0.90932322 0.10979749
-4.8770103 3.2757938 -0.30790988 12.222222 0.061287206 -0.053167343 0.99670315 7.5067408e-05
-4.6985903 3.4482715 -0.30547455 11.466666 0.061854888 -0.052783825 0.99668849 7.6202901e-05
11.593332 3.5754411 -0.21176751 51 -0.9953081 0.0060085356 -0.096569501 0.053555883
11.739272 3.3973227 -0.21332659 52.888889 -0.97847456 -0.051853705 0.19974712 0.071101256
-17.653599 3.9460454 -0.31574893 33 0.52436733 0.81248832 0.25475782 0.061322857
-17.456259 3.7754905 -0.31174651 33 0.52437067 0.81248647 0.25475714 0.061320849
-9.0238953 3.7120841 -0.17032385 27.333334 0.52956831 -0.13420841 -0.83758312 0.13055028
-8.6158638 3.7537155 -0.16404565 17 0.31104288 -0.06024674 -0.94848442 0.070240751
-4.565836 3.825279 -0.31224111 13.409091 0.062889211 -0.04436411 0.99703395 6.570093e-05
11.772702 3.8338287 -0.21612187 59.625 -0.99610543 -0.085988373 -0.019493775 0.085982427
-17.798117 4.143548 -0.31897765 35 0.58119386 0.80210125 0.13728552 0.052515864
-9.0570812 4.3705654 -0.1755363 12 0.61802959 -0.56529665 0.5463323 0.1272002
-8.5385199 4.2588387 -0.16655879 19.200001 0.51125324 -0.088721871 -0.85483825 0.121962
-8.2059784 4.1904874 -0.16083266 23.75 0.49705243 0.075279161 -0.8644489 0.14332944
-4.4313731 4.050652 -0.3146438 12.666667 0.062616445 -0.040504869 0.99721533 6.4462867e-05
-4.2204914 4.223907 -0.3130146 13.695652 0.061916981 -0.036496289 0.99741387 6.548252e-05
11.904906 4.1993957 -0.2203541 36.166668 -0.97244012 -0.077620685 0.21985291 0.091938868
-8.4763889 4.532033 -0.1677787 9.25 0.50834203 0.55856526 -0.6554336 0.20926024
-8.182292 4.6727767 -0.16447149 15 0.57744521 0.599114 -0.55463451 0.12062032
-4.0396924 4.5505123 -0.31891629 15.454545 0.06166495 -0.030299101 0.99763697 7.0029491e-05
-3.8962517 4.7456818 -0.32184872 22.666666 0.05820686 -0.030271482 0.99784547 8.890489e-05
11.38886 4.5771866 -0.21425885 48.125 -0.79147708 -0.42706445 -0.43724144 0.10595903
11.707999 4.4261565 -0.21848087 47.333332 -0.92772019 -0.32411101 0.18516831 0.10424793
12.03574 4.4354925 -0.22389692 36.5 -0.95852268 -0.2359674 0.15985517 0.095729776
-11.38781 5.1059437 -0.21784094 6 0.38925773 0.018362667 -0.92094588 0.065401025
-10.880449 5.0378261 -0.20928925 5 0.40694243 -0.0095188851 -0.91340423 0.092378676
-3.7744348 4.9616275 -0.32681906 21.363636 0.053612754 -0.028661979 0.99815047 7.7338686e-05
-3.5993128 5.1308126 -0.32846051 24 0.052159823 -0.027906407 0.9982487 6.8450689e-05
11.388811 5.0517502 -0.21747695 39.142857 -0.60494089 -0.6953156 -0.38804993 0.034515042
-11.741136 5.3631225 -0.22531058 18 0.17204086 -0.085736066 -0.98135179 0.033282723
-11.573047 5.240027 -0.22175027 18 0.27621308 -0.023837103 -0.96080077 0.052514829
-10.351698 5.5342565 -0.20489125 11 0.48248628 -0.16027741 -0.86111444 0.1388475
-3.6126857 5.246767 -0.3338511 23 0.052160554 -0.027906571 0.9982487 6.8450841e-05
-3.458086 5.4191203 -0.33695641 24.444445 0.10689753 -0.064924002 0.9921481 0.0028223677
10.396648 5.5093894 -0.20537992 33 -0.66281366 -0.32521462 -0.67447275 0.12870102
10.45157 5.4678974 -0.20589477 29.75 -0.6927132 -0.4108381 -0.59275663 0.12344874
11.136067 5.5086474 -0.21686362 40.666668 -0.74431884 -0.57241154 -0.34399775 0.072377019
-12.101678 5.7025208 -0.23351321 25.5 0.086078957 -0.059928369 0.99448425 0.055436138
-11.706191 5.9465971 -0.22918501 19 0.066913418 -0.028313171 -0.99735701 0.0074716508
-10.669485 5.8730922 -0.21258777 11 0.36793742 -0.10584044 -0.92380732 0.08504352
-3.3004942 5.7487803 -0.34741774 27.555555 0.16864116 -0.13317539 0.97663945 0.0070879506
-3.0675137 5.8765221 -0.34744349 27.857143 0.15060262 -0.11527404 0.98185068 0.0085253455
-2.5987685 5.8936272 -0.33756697 28 0.03958378 -0.024188306 0.99892336 5.0374441e-05
10.400372 5.6000309 -0.20618272 39 -0.66281134 -0.32517585 -0.67449367 0.12871116
-12.687238 6.1965356 -0.2464629 28.333334 0.089851819 -0.15027142 0.98455322 0.15897398
-11.732622 6.1355119 -0.23111174 28.799999 0.10741132 -0.064987928 0.99208832 0.060418729
-11.027779 6.1711655 -0.22058097 24 0.31506765 -0.044318315 -0.94803387 0.04855096
-2.8834743 6.0766344 -0.35250884 24.75 0.15644647 -0.13303247 0.97868633 0.0074618794
-2.5971825 6.2176566 -0.35319579 26.875 0.038283229 -0.023688518 0.99898618 4.6338886e-05
-2.3122599 6.3433084 -0.35387483 30 0.034365539 -0.02384082 0.99912488 3.257869e-05
10.118135 6.1761513 -0.20691574 5 -0.76047206 -0.60440755 0.23743172 0.14312345
-12.841342 6.4669466 -0.25096563 21 0.22404999 0.22830798 -0.94745821 0.13965072
-11.649277 6.7067471 -0.23463015 19 0.087277591 -0.19683099 0.9765451 0.066783927
-11.316508 6.4103966 -0.2270209 25 0.095801204 0.075262636 -0.99255109 0.015973022
-5.7752762 6.7883277 -0.15557076 10 -0.12435722 -0.57703507 -0.80719626 0.14549506
-2.1879525 6.5534458 -0.36215872 26.117647 0.034365982 -0.023841288 0.99912488 3.2450338e-05
-1.9458411 6.6813116 -0.36470315 28 0.030849278 -0.024344714 0.99922752 2.7274156e-05
9.4552078 6.7892518 -0.20318091 11 -0.77442765 -0.62884265 0.069417886 0.13481641
-13.534725 7.1723189 -0.26737088 22 0.23916103 0.087811321 -0.9670012 0.05732432
-12.421385 6.8061485 -0.24723078 20 0.016364498 -0.16054408 0.986893 0.17897937
-12.345043 6.8204522 -0.24618365 34 -0.004186078 -0.15011504 0.98865974 0.076587304
-11.883585 7.0073342 -0.24080829 23.799999 0.07720831 -0.42810541 0.90042472 0.082111351
-11.262734 7.0418615 -0.23185521 9 0.51784056 0.59690011 -0.61282259 0.1126125
-11.153507 6.8670588 -0.22862653 12.5 0.43458226 0.58938485 -0.68100196 0.098483905
-5.6836405 6.9459605 -0.15667024 13 0.061648354 -0.56987309 -0.819417 0.1585317
-5.3234563 7.1267152 -0.15528154 28.285715 0.12371093 -0.30523521 -0.94420719 0.098253235
-5.1949759 7.1977153 -0.15494247 37 0.20988041 -0.29524115 -0.93208528 0.13877819
-1.7669569 6.8599639 -0.3712863 22.142857 0.029936012 -0.023912152 0.99926573 2.4905961e-05
-1.4016531 6.9770966 -0.37301379 22.470589 0.028197354 -0.023831965 0.99931824 2.046671e-05
-1.0479401 7.1183286 -0.37710878 18 0.027514689 -0.022094827 0.99937719 1.9836049e-05
9.2850151 6.8988895 -0.20191272 10.333333 -0.77443087 -0.6288386 0.069418259 0.13482463
-13.848389 7.4634104 -0.27459615 23 0.19558233 0.049562003 -0.97943407 0.048419062
-12.010779 7.2510848 -0.24489217 27 0.20756651 0.28745222 -0.93503332 0.11477949
-5.7396431 7.5331087 -0.16530919 30 0.21917212 -0.5308907 -0.81860775 0.2118877
-5.2855968 7.5038433 -0.1602131 22.333334 0.28474569 -0.15946412 -0.94524652 0.08152061
-5.0685725 7.2843575 -0.15490755 16.75 0.38510329 -0.25906101 -0.8857668 0.13390179
-4.6437793 7.3624763 -0.15194066 19.666666 0.50386828 -0.24788253 -0.82744843 0.11929895
-0.85028177 7.2547622 -0.3828114 18.5 0.027514582 -0.022094565 0.99937719 1.9836083e-05
-0.6031037 7.3394623 -0.3859908 18.25 0.026824145 -0.018846596 0.99946254 1.8102688e-05
-0.19711587 7.4398441 -0.39009261 17.75 0.024944009 -0.017949471 0.99952769 9.810653e-06
0.18004027 7.5542297 -0.39604637 21.846153 0.025255583 -0.016382668 0.99954677 7.1747772e-06
-14.228817 7.9261632 -0.2842997 32 0.66137493 0.15656613 -0.73353273 0.076500356
-5.8711429 7.6238351 -0.16796197 15 0.79967439 -0.33150187 0.50062692 0.15368429
-5.473927 7.9260225 -0.16813649 23 0.20872134 -0.29548335 0.93226868 0.11810677
-5.067945 7.6899748 -0.16076459 29.799999 0.25268686 -0.20984161 -0.9445188 0.086092569
0.3671844 7.6166897 -0.3996374 16 0.031824224 -0.038128201 0.99876601 0.00038107103
-12.912096 8.2925968 -0.26785952 30 0.41999307 0.24911913 -0.87266576 0.09535674
-12.741691 8.0893927 -0.26344407 26 0.34724018 0.24030136 -0.90646541 0.055808388
-5.0101929 8.2924099 -0.16911381 15 -0.15270963 -0.18450657 0.97089499 0.080062136
-4.6957517 8.1529617 -0.16422714 11 0.54688239 0.052975763 -0.83553177 0.11129834
-4.1918344 8.1738424 -0.16034399 20.25 0.82810318 0.078208551 -0.55509317 0.077348106
17.115339 8.248105 -0.33163062 50 -0.53540057 -0.59897852 -0.59545857 0.10233184
-13.269078 8.7194729 -0.27714422 47 0.82729214 0.13378839 -0.54560822 0.14875218
-13.065449 8.4881821 -0.27196085 26.5 0.55925947 0.10213646 -0.82267672 0.1130746
-6.6154699 8.497901 -0.18797986 11.5 -0.53919739 -0.66505796 -0.51668566 0.087425202
-13.625131 9.1591539 -0.28656849 32 0.97407705 0.22292766 0.038434714 0.10038164
-13.45379 8.942255 -0.28197852 32 0.95414019 0.1632174 -0.25095147 0.16770647
-7.6652875 9.0738516 -0.20733458 11 -0.50055236 -0.79116422 -0.35143489 0.055173561
-7.4318805 9.0504599 -0.2044142 30.333334 -0.56071591 -0.77805245 -0.28325266 0.052066281
16.128452 9.0175056 -0.32253793 29 -0.46416181 -0.55893147 -0.68713135 0.075711168
-13.824386 9.4306479 -0.29210675 29.333334 0.94638729 0.16070154 0.28022486 0.12452303
-13.322639 9.5732861 -0.2863591 48 0.30601677 -0.016197264 0.95188838 0.13454776
-7.4490333 9.2879801 -0.20782326 29.333334 -0.23107989 -0.55772823 -0.79720849 0.10122021
16.136965 9.5814381 -0.32758167 41 -0.42527589 -0.50044006 -0.75412214 0.075061262
16.955074 9.2058516 -0.33676165 17 -0.53539008 -0.59898114 -0.59546548 0.10233571
-13.79882 9.6975231 -0.29439417 28.799999 0.98753893 0.052676808 0.14829679 0.14084394
-13.442139 9.7663651 -0.29002407 32 0.50532478 -0.2117248 0.83655214 0.19045332
-13.12735 9.7802553 -0.28574473 30.4 0.29454285 -0.16142398 0.94190592 0.10714421
-12.46348 9.945962 -0.27833098 15.5 0.10077349 0.10783368 0.9890483 0.055082239
-11.465432 9.9176664 -0.26461339 22 0.14882024 0.057130449 -0.9872126 0.059569545
15.417813 9.7091007 -0.31803522 24.5 -0.35193864 -0.50409842 -0.78868502 0.043283604
16.11544 9.644886 -0.32782599 16 -0.42527571 -0.50044012 -0.75412214 0.075061321
-13.268601 10.248032 -0.29264197 18.666666 0.44312763 -0.55431819 0.70453477 0.11711678
-13.152262 10.012084 -0.2885232 16 0.41647774 -0.28649315 0.86282563 0.18664995
-12.549924 10.261915 -0.28297335 17.6 0.15795876 -0.089509614 0.98338044 0.043750763
-12.196103 10.25649 -0.27815646 20.666666 0.07329075 0.0029602814 0.99730623 0.02869737
-11.825978 10.181175 -0.27238551 25.333334 0.091539189 -0.11098965 0.98959678 0.040151473
-9.2027941 10.368994 -0.24199508 13 -0.55932403 -0.82891417 0.0076118768 0.034637224
-8.7128582 10.133169 -0.23326886 25.5 -0.45987365 -0.5817728 -0.6708625 0.12107847
-8.384964 10.067517 -0.22869635 19 -0.53404373 -0.61255813 -0.58272624 0.1166049
-6.621295 10.070389 -0.2103713 14 -0.25494447 -0.53599554 -0.8048057 0.09040954
0.48371896 10.234254 -0.17884064 21.666666 0.1097158 -0.690566 0.71489924 0.25142071
15.314198 10.364415 -0.32277644 30.333334 -0.33121854 -0.53519666 -0.77708346 0.04878382
-13.295712 10.458898 -0.29527724 24 0.36561018 -0.43730691 0.82163978 0.048957344
-12.00949 10.613896 -0.27976209 24 -0.021637121 -0.10688955 0.99403548 0.022442076
-11.967605 10.57509 -0.27876729 27.5 -0.021637121 -0.10688955 0.99403548 0.022442076
-10.689167 10.485895 -0.26136723 7 0.3365553 0.27843687 -0.89955729 0.14936154
-9.3966894 10.441991 -0.24520631 21.4 -0.53693616 -0.84188074 -0.054188874 0.053601768
-9.0915565 10.425543 -0.24145404 30 -0.52994335 -0.79950631 -0.28275394 0.10733505
14.550799 10.564045 -0.31386408 28.5 -0.55596995 -0.59149778 -0.58397585 0.071990222
16.938595 10.625571 -0.34903067 8 -0.33867356 -0.9365918 -0.089977644 0.14640714
-12.138263 11.026638 -0.2862474 19.200001 -0.050893754 -0.10568669 0.99309623 0.031748638
-11.890962 11.10797 -0.28403211 26.666666 0.30089283 -0.044035576 -0.95264065 0.086788081
-0.96328884 11.045497 -0.19353944 23.333334 -0.013864979 -0.66994542 -0.74228084 0.17748198
-0.59207922 10.943392 -0.19130632 17.299999 0.20381407 -0.7135306 -0.67032373 0.19113418
-0.24738251 10.885184 -0.19005671 14 -0.42377511 -0.89088422 0.16352384 0.22342089
-11.777807 11.351702 -0.28553882 20 0.33081934 -0.04047133 -0.94282579 0.089924484
-11.401495 11.406095 -0.2815204 28 0.57686716 -0.3284364 -0.74789959 0.11183511
-10.881913 11.515347 -0.27655083 55 0.53793824 -0.50515443 -0.67486393 0.11344227
-7.4380937 11.44054 -0.23819044 6 0.18929064 0.094236106 0.97738868 0.048771955
-2.1297894 11.435592 -0.2030413 26 -0.47893688 -0.71249813 -0.51280206 0.061959997
-1.4131734 11.393384 -0.20040599 32.299999 -0.20961699 -0.58181399 -0.78584552 0.17553113
-1.1760321 11.226853 -0.19703768 20 -0.27984101 -0.93608314 -0.21316017 0.12605114
-11.211963 11.706313 -0.28293842 32 0.55471504 -0.46732196 -0.68840498 0.1106535
-11.107689 11.784915 -0.28268245 34.666668 0.52732229 -0.52643013 -0.66693521 0.11226536
-10.77094 11.803957 -0.27892435 24 0.53796464 -0.50506604 -0.67490917 0.11344638
-2.0952363 11.884215 -0.2106418 35.75 -0.47820264 -0.60629773 -0.6353938 0.052793615
-1.7988367 11.671247 -0.20613287 37 -0.25569269 -0.4307684 -0.86548233 0.1563898
13.319384 11.846301 -0.31114152 33 -0.93075979 -0.36118627 0.056839649 0.12795393
-2.214879 12.239847 -0.21712539 23.5 -0.64819759 -0.47377992 -0.59613121 0.058933757
-2.5538757 12.613532 -0.22464156 25.5 -0.52527297 -0.33534259 -0.78207016 0.078846
-4.0379267 13.028511 -0.23808573 6 0.95395458 0.29295272 0.064415336 0.25852135
-3.9495647 13.142555 -0.2395401 21.333334 -0.95398557 -0.29285929 -0.06438186 0.2585277
-2.993099 13.025609 -0.2332938 24.571428 -0.26859137 -0.66078246 -0.70087469 0.16258897
-2.7677042 12.855436 -0.22953404 25 -0.38069451 -0.41171706 -0.82798594 0.12743381
-3.7632384 13.320198 -0.24161111 33.5 -0.65859175 -0.62644118 -0.41692737 0.26610166
-3.4263136 13.317525 -0.24003604 20.625 -0.19318128 -0.95079213 0.24223001 0.17725267
-8.6568203 13.940273 -0.2864289 8 -0.19226761 -0.26660788 0.94443285 0.11557291
-3.8984075 13.666611 -0.24806851 31 -0.61822069 -0.78312755 -0.067189433 0.14170694
-8.6888762 14.101496 -0.28911656 16 -0.13742392 -0.29524034 0.9454881 0.11955032
-8.1517601 14.155011 -0.2851316 20 -0.034824193 -0.25647777 0.96592259 0.11503477
-4.605083 14.252437 -0.26144403 21.799999 -0.5758785 -0.75015992 0.32499847 0.10465738
4.1430078 14.353775 -0.26077387 44 -0.11747987 -0.78122276 0.61309826 0.059496462
-8.009182 14.425189 -0.2879996 24 -0.067272536 -0.2429316 0.96770793 0.11616796
-7.8600564 14.569552 -0.28896531 25.333334 -0.067275375 -0.24293163 0.96770775 0.11616699
-6.0669384 14.726816 -0.27801684 31 -0.2802017 -0.81003833 -0.51509702 0.048105869
-5.8553095 14.725028 -0.27660319 35 -0.22671644 -0.81256443 -0.53697175 0.05426605
-5.3083062 14.717999 -0.2731069 41 -0.25041831 -0.92425513 -0.28817207 0.067312457
-4.9723864 14.521345 -0.26792234 30.200001 0.17655757 -0.92980307 -0.32294506 0.14738393
3.4604535 14.741974 -0.26431671 11 -0.12524772 -0.75277263 0.64625561 0.057197865
4.1941729 14.529354 -0.26396766 18 -0.11745812 -0.78117567 0.6131624 0.059524417
17.136993 14.620869 -0.39320272 9 -0.71339202 0.45804322 -0.53034735 0.11328138
-7.7747593 14.840187 -0.29243252 16 0.31962442 -0.57620639 0.75221437 0.094007738
-6.9862413 15.064334 -0.28984958 8 -0.14442591 -0.14800757 0.97838384 0.12440439
-6.2438865 15.082804 -0.28494543 20 -0.40867096 -0.76311791 -0.50063866 0.059621293
-5.7776237 14.951385 -0.27978998 31.6 -0.22673079 -0.81260991 -0.53689694 0.054231845
-5.4557099 14.853874 -0.27621341 39 -0.17549108 -0.90405327 -0.38973135 0.08915367
2.2617967 15.079602 -0.26616085 34.666668 -0.39209974 -0.91962647 -0.023343794 0.063288391
2.5545099 15.056393 -0.26656803 35.5 -0.3057842 -0.95164931 0.029319579 0.0670176
3.3340573 15.023572 -0.26862043 13 -0.12527265 -0.7528221 0.64619315 0.057183906
3.9037693 15.090819 -0.27208301 9.666667 -0.11746922 -0.78122061 0.61310303 0.059497759
4.1384001 15.059749 -0.2726182 15 -0.066278078 -0.74541789 0.66329426 0.057207048
4.5081491 14.856714 -0.27100098 7 -0.066278078 -0.74541789 0.66329426 0.057207048
-7.6769261 15.297107 -0.29875028 16 0.11028404 -0.48074016 0.86990017 0.13141021
-7.4181542 15.303268 -0.29685545 25.142857 0.028285151 -0.56491131 0.82466668 0.16690569
-6.6336617 15.491876 -0.29416031 20 -0.3859857 -0.87094176 0.30409783 0.11169233
-6.3596249 15.218092 -0.2878949 24 -0.51546943 -0.76803023 -0.38002744 0.098209158
1.8219267 15.380312 -0.27034473 45.599998 -0.58415985 -0.79222953 -0.17643555 0.054820146
2.2451754 15.316875 -0.27022144 27.666666 -0.41422451 -0.90917683 -0.042608362 0.061672773
2.450521 15.247991 -0.26956987 45 -0.30577084 -0.95165354 0.029321259 0.067022443
2.9031703 15.335237 -0.27243206 15 -0.085247062 -0.97752863 0.19279698 0.096391365
-7.2817521 15.800683 -0.30368349 26.666666 -0.34275258 -0.72514063 0.59723669 0.15631576
-6.9764152 15.759662 -0.30083761 27.200001 -0.53427708 -0.77685827 0.33322555 0.10705735
1.5194339 15.897501 -0.27875856 47.5 -0.76260245 -0.62532836 -0.16553506 0.062374726
1.6701821 15.758301 -0.27660319 50.5 -0.74561024 -0.64117837 -0.18153703 0.063109651
2.0846658 15.727292 -0.27692315 28.333334 -0.58307874 -0.81118345 -0.044728857 0.051997036
0.96084625 16.317247 -0.28531197 32 -0.55206335 -0.82920218 0.087463051 0.074024737
1.3224939 16.227594 -0.28419501 36 -0.70828772 -0.69782197 0.10664435 0.065767772
0.6169377 16.650814 -0.29084435 38 -0.56971955 -0.76477891 -0.30088669 0.081501141
1.0808961 16.595615 -0.29029635 30.4 -0.58688003 -0.77868998 0.22184162 0.074054107
0.32077879 16.859356 -0.29433483 32 -0.61219496 -0.72493219 -0.31573829 0.068978354
-0.067278855 17.495802 -0.30539384 21.333334 -0.7963922 -0.56568557 -0.21391416 0.078238271
0.15665345 17.489803 -0.30530074 32 -0.71913272 -0.68179566 -0.13417429 0.15495868
0.44413978 17.247631 -0.30115873 28 -0.62944293 -0.74753636 -0.21211071 0.094122216
6.7910562 17.463169 -0.32705811 8 -0.33875492 -0.78463459 0.51922411 0.083614312
0.11681665 17.61293 -0.30744159 24 -0.80560428 -0.59081775 -0.044003289 0.11877305
7.0420547 18.335453 -0.3428438 29.5 -0.35682786 -0.73955518 0.57072932 0.084323935
7.4024291 18.264505 -0.34400091 25 -0.3667019 -0.76783413 0.52531946 0.087938488
7.7983565 18.230022 -0.34610447 25.166666 0.028045401 -0.68904465 0.72417605 0.12296158
8.2126169 18.224979 -0.34892946 21.799999 0.21994834 -0.60259837 0.76713616 0.093144961
3.6496701 18.740997 -0.33327115 8 0.47491872 -0.69711226 0.53710961 0.080825947
6.721313 18.682566 -0.3465699 29.5 -0.44365534 -0.72140813 0.53173316 0.072824389
6.8585477 18.471783 -0.3439346 34 -0.48535109 -0.71481657 0.50345957 0.070201054
8.6642094 18.537271 -0.35716936 8 0.21992809 -0.60266656 0.76708847 0.093138032
3.4451802 18.908365 -0.33548179 8 0.5238049 -0.76839858 0.36768478 0.062395032
6.2631674 19.069601 -0.35035706 29.5 -0.53614914 -0.77787471 0.32780331 0.037233774
6.4940786 18.873812 -0.34840241 29.5 -0.54457748 -0.68831325 0.47922882 0.066849925
5.8549538 19.442261 -0.35442343 19.666666 -0.49115911 -0.78401059 0.37959206 0.036450222
6.0690823 19.260607 -0.35249206 25 -0.49114409 -0.78401417 0.37960404 0.036458891
5.3454247 19.674639 -0.35587204 16.5 -0.11234127 -0.84074283 0.52965164 0.067429945
9.4158459 19.696762 -0.3810733 9 0.19700167 -0.77214855 0.60413319 0.090120934
9.6631289 19.856117 -0.38545388 9 0.19694027 -0.77224547 0.60402948 0.090096802
-0.19059567 -19.500101 0.34039176 7 -0.33451784 0.059496686 -0.94050938 0.039327923
-9.8890533 -17.61488 0.35260841 10 0.556997 0.7571348 0.34132275 0.10936788
-9.4150343 -17.632797 0.34890851 20 0.91971439 0.27577502 0.27941674 0.059572954
-10.133408 -17.334301 0.35047922 7 0.1118263 0.95943916 0.25878838 0.13386367
-9.8247423 -17.390409 0.34865543 35.75 0.55734462 0.75687921 0.34132203 0.10931268
-9.4884062 -17.46599 0.34695384 24.333334 0.91959655 0.27610424 0.27947935 0.059562385
-9.8895054 -17.184498 0.34608123 30 0.1119552 0.95941883 0.25880778 0.13383476
-1.3648472 -16.39077 0.28709209 6 -0.32554868 0.067637987 -0.9431029 0.039443053
-6.1109066 -13.356486 0.2563875 18.666666 0.55479538 0.72890228 -0.40112779 0.074709609
-5.9108214 -13.452466 0.25648057 8 0.71261638 0.63888693 -0.28982991 0.073645562
-6.8863387 -13.000546 0.25679472 26 0.41705894 0.89139122 -0.17743587 0.10650183
-6.5485191 -12.890866 0.25238276 30.799999 0.3276062 0.81668848 -0.47507274 0.1411438
-6.1893883 -13.020282 0.25165209 27 0.55592221 0.66223651 -0.50238752 0.11036573
-6.6839395 -12.771492 0.25161135 32 0.16729105 0.88934505 -0.42553383 0.1350455
-6.2358994 -12.768414 0.24803361 35 0.55584705 0.66228586 -0.50240582 0.11036481
1.3966625 -12.373528 0.21735227 24 -0.044020146 0.99503314 -0.089281857 0.12834448
0.18794908 -11.7936 0.20588954 28 -0.47531593 0.87625325 0.079088755 0.18487717
0.43607336 -11.669059 0.20382665 26.5 -0.57038534 0.82123125 -0.015483031 0.17756706
0.30400559 -11.553466 0.20173818 35.333332 -0.57038563 0.82123101 -0.015490237 0.17756838
1.295921 -11.498272 0.2019767 22.25 0.68607664 0.33786097 -0.64432049 0.21247597
19.630196 -11.308506 0.39543664 25.5 -0.0081671951 -0.038469627 -0.99922639 0.018190198
0.61857051 -10.93329 0.19115427 36 -0.47512475 0.82712144 -0.30021086 0.19574939
1.0040288 -10.867536 0.19051048 16.4 -0.0053340206 0.9777649 -0.20963605 0.18273245
19.519882 -10.927559 0.39048013 57 -0.0081670992 -0.038469717 -0.99922639 0.018190188
19.650002 -11.000318 0.39308634 37.666668 -0.0081672063 -0.038469613 -0.99922639 0.018190198
0.8607443 -10.630873 0.18617064 48 0.077372745 0.64066517 0.76391202 0.13187397
19.739319 -10.662577 0.39160874 43.666668 -0.0081671821 -0.038469791 -0.99922645 0.018190021
-19.743368 -10.042397 0.38664061 24 0.84263128 0.53141844 0.086988315 0.15033972
19.137114 -10.278438 0.37917098 8 -0.0081675397 -0.038469851 -0.99922633 0.01819003
-19.76701 -9.8828173 0.38575637 37.333332 0.84269935 0.53131723 0.086947069 0.1502308
-19.530102 -9.6015415 0.37986907 44 0.84275931 0.53122467 0.086931668 0.15025388
-19.756815 -9.288269 0.38106751 41 0.84297156 0.53089917 0.086861931 0.15016441
-19.585072 -9.5438213 0.38028795 33 0.84274763 0.53124309 0.086931922 0.15025251
-19.925892 -9.1986179 0.38308033 27 0.92423582 0.37820926 -0.052401051 0.12687926
-0.62644798 -8.6109152 0.15070735 16.833334 0.78286111 0.35861537 -0.508452 0.10442258
7.7041674 -8.6804638 0.20258754 14 -0.035627544 0.23869485 0.9704408 0.073924698
16.232452 -8.5728893 0.32042617 13 -0.55559069 -0.8194136 0.14099745 0.009860442
-2.9529102 -8.1173344 0.15078007 32.75 -0.58866805 0.69717932 0.40915889 0.076949216
-0.92905426 -8.2011595 0.14407931 30.666666 0.70584232 0.41438246 -0.57452041 0.10795372
-0.78607583 -8.3939905 0.14715868 21 0.81489098 0.2610566 -0.51749593 0.066675119
15.889246 -8.1806211 0.31195304 51 -0.59189612 -0.77045214 0.23677528 0.016266635
16.294666 -8.3887062 0.3199026 38 -0.55850023 -0.82584554 0.077824742 0.0082131159
-2.8629417 -7.8092813 0.14518657 28.5 -0.43303996 0.7763387 0.45801169 0.084335573
-2.6161513 -7.7520671 0.14281304 29.333334 -0.42825523 0.82146537 0.37655288 0.10979781
-2.0826693 -7.7486606 0.14005557 45 -0.13456054 0.99085319 -0.01017269 0.072534025
-1.2280574 -7.9788165 0.14091073 28 0.65290862 0.75733578 -0.012366333 0.046833687
-1.0868134 -7.9159689 0.13947465 38.714287 0.65289861 0.75734454 -0.012354586 0.04682526
15.920468 -7.9862823 0.31089717 54 -0.57826281 -0.75595647 0.30682564 0.017238073
-2.9474678 -7.5636477 0.1416961 9.25 -0.44041097 0.73927128 0.50942725 0.10098087
-2.5797281 -7.4736471 0.1380311 27.5 -0.22808373 0.92460883 0.3050842 0.073780954
-2.2101915 -7.5015554 0.13652019 44.642857 -0.16157055 0.98199356 0.097896419 0.12106627
-1.8421218 -7.4398413 0.21303515 33.799999 0.22877094 0.96393055 0.13602132 0.13381028
6.384408 -7.2954183 0.16921853 17 -0.92894453 0.12769674 -0.34749919 0.23134774
6.4058681 -7.2685885 0.16911381 14 -0.92896211 0.12769747 -0.34745172 0.2313367
6.3310227 -7.0172753 0.16497178 35.666668 -0.99069792 -0.022033582 0.13428394 0.11154683
6.5326238 -7.0246148 0.16745001 39 -0.92897135 0.12794282 -0.34733671 0.23132837
6.3849545 -6.4792557 0.15878199 50 -0.86982805 -0.12850024 0.47632638 0.14334843
-4.1868434 -6.2053566 0.13066617 5 0.09402328 0.29491085 -0.95088762 0.030835697
-3.7460754 -6.1108255 0.12512329 3.4000001 0.10421223 0.24213962 -0.96462858 0.044803187
5.7610426 -6.2453327 0.14831054 40 0.14461812 0.72892952 -0.66913933 0.042691763
6.2090688 -6.1341014 0.15235369 38.166668 0.12221069 0.75191611 -0.64783233 0.063071541
-3.8127182 -5.9367714 0.12315814 5.8000002 0.1042139 0.2421454 -0.96462697 0.044803042
5.6224818 -5.8039923 0.14105034 18.5 -0.05281819 0.84143633 -0.53776866 0.02437892
6.2554231 -5.9090242 0.1502085 48.875 0.15705121 0.78852588 -0.59461075 0.065377377
6.5855155 -5.8714695 0.15400876 55.375 0.17940471 0.79053563 -0.58554864 0.062248249
6.8195653 -5.8740625 0.15710656 42.5 -0.2581445 0.65605879 -0.70918846 0.085958041
11.908912 -5.7673092 0.23096515 40 -0.89648473 -0.30915037 -0.31739751 0.067170709
12.107281 -5.7854576 0.23423457 42.833332 -0.95643365 -0.19878444 -0.21382083 0.10576004
12.192901 -5.4176817 0.23289987 56.857143 -0.97886264 -0.093320519 -0.1819865 0.11544733
12.479793 -5.5146546 0.23815554 24 -0.95023382 0.14370264 -0.27641496 0.15507144
11.93459 -4.9801245 0.22572942 57.333332 -0.94927603 -0.22303449 -0.22165455 0.089981906
12.131632 -4.9439392 0.2286754 49.400002 -0.95644671 -0.24164818 -0.16375576 0.17405507
13.008068 -4.9802847 0.24312946 60.5 -0.93167192 -0.25059459 0.26303965 0.14809261
1.5655386 -4.4480667 0.24713041 15 0.38442135 0.15825705 -0.9094916 0.21753177
2.1697817 -4.4904094 0.2613658 9 -0.35057202 0.16012159 -0.92274606 0.12777683
12.129895 -4.5432792 0.22610176 41 -0.93004471 -0.35784143 -0.08346501 0.09114892
0.65262043 -4.2139888 0.20412636 23.190475 0.97761971 0.16816252 -0.12641649 0.17278241
0.8539077 -4.1224031 0.36832017 18 -0.99527347 0.096511766 -0.010776984 0.21806207
11.727488 -4.1447325 0.21711493 50.799999 -0.85457224 -0.47948632 -0.19949725 0.091985211
-17.881691 -3.8106556 0.31913471 13 0.53973252 0.73639345 0.40793818 0.0096768215
-0.92725897 -3.9004607 0.31505904 3.25 0.062701136 0.82900155 0.55572027 0.067940228
-0.65398729 -3.7184842 0.2048472 3.390244 -0.023581944 0.80785549 0.58890861 0.084118098
0.71815997 -3.7877576 0.1730521 25.864864 -0.83147323 0.36506543 0.41878343 0.096740924
0.9028765 -3.7105196 0.22631629 28.5 -0.85501599 0.27618966 0.43893838 0.12085815
1.3475927 -3.6871109 0.18520319 18.142857 0.60917556 0.19999757 -0.76740223 0.1718989
11.524806 -3.9165723 0.21246558 55.5 -0.90155274 -0.37577447 -0.21446742 0.080515921
11.712356 -3.8666892 0.21529289 11 -0.90155238 -0.37577677 -0.21446486 0.080516264
1.0088009 -3.4761651 0.24819495 28.648649 -0.77542621 0.17920907 0.60547364 0.13529299
1.3157996 -3.4963875 0.22244051 16.4 -0.66688108 0.54511726 0.50805193 0.17417528
2.3131566 -3.2238243 0.34714133 14.5 0.14816263 0.98223603 -0.11515307 0.19747837
2.4671524 -3.2775908 0.21499613 11 0.64259046 0.74972671 -0.15807357 0.10746383
0.72788703 -2.8702807 0.051689669 9.25 -0.81664717 0.19693419 0.54249829 0.093580276
0.97246021 -2.9541628 0.11361789 14.148149 -0.74072564 0.62576658 0.24442124 0.11804591
1.4014418 -2.9492388 0.23183422 26.493507 -0.34473363 0.82058901 0.45584255 0.16462927
1.7937428 -2.9057691 0.18004584 36.640625 0.22258717 0.97277045 -0.064595193 0.10268582
2.2191687 -2.9052923 0.19427536 32.92157 0.45141405 0.83826864 -0.30582839 0.098615855
2.5702474 -2.8856339 0.24937756 22.222221 0.65111047 0.74068147 -0.16566844 0.10617828
8.9796181 -2.8432198 0.1644104 29.25 -0.82314217 -0.55353469 -0.12663417 0.078930035
1.0707073 -2.6870546 0.06777668 6.647059 -0.54902023 0.69438201 0.46519929 0.15469566
1.372084 -2.628926 0.11930591 22 -0.18475571 0.89942223 0.39611235 0.17722976
1.7821908 -2.7348893 0.28766859 40.14706 0.24892791 0.95876664 0.13711801 0.094480418
2.1317971 -2.7205954 0.1870503 32.833332 0.35195404 0.91536772 -0.19552574 0.12229654
2.535526 -2.7525184 0.30592537 27.083334 0.69263536 0.6940881 -0.19620898 0.090050496
9.0628853 -2.6268072 0.16471232 51.599998 -0.91331106 -0.3736169 -0.16209063 0.073233515
-12.666836 -2.2608652 0.22459501 20 0.25570649 -0.96038419 0.11079875 0.15118046
-12.340871 -2.0504115 0.21836452 22.333334 0.67485839 -0.7351678 -0.063988619 0.14031456
1.3748096 -2.3075345 0.10236995 21.4 -0.052528288 0.84361821 0.53436804 0.13761897
8.705389 -2.1695259 0.15661092 66.800003 -0.86645657 -0.22041784 -0.44796103 0.07666415
8.8667011 -2.2672031 0.15975235 60.200001 -0.91251212 -0.36510319 -0.18444835 0.069990285
-12.447537 -1.8891817 0.21976072 15 0.56810963 -0.82211143 0.037207283 0.14727256
-12.226112 -1.8575819 0.2158601 36.75 0.79519928 -0.52010071 -0.31169444 0.14002977
-11.935472 -1.6657379 0.21035387 56 0.93979579 -0.21064043 -0.26909932 0.10199618
-0.40676227 -1.7238141 0.28073573 18 0.096758507 0.24351993 -0.96505737 0.091646716
-0.30820337 -1.659827 0.22606146 24.229507 0.0099608591 0.20866206 -0.9779371 0.094477288
8.3671255 -1.6657928 0.14891557 35.333332 -0.85103893 0.37239647 -0.3702074 0.1420459
8.5069733 -1.8153425 0.15184641 47.099998 -0.8161338 0.41045976 -0.40675354 0.12172589
-11.756283 -1.390222 0.20664699 41.200001 0.85321158 -0.44637549 -0.26977575 0.075839192
8.6203251 -1.5448272 0.15286562 16 -0.85102254 0.37240312 -0.37023854 0.14206158
9.1763954 -1.4648926 0.16220267 19 -0.71412563 0.40507817 -0.57090831 0.24872316
9.5216837 -1.3355622 0.16783631 22.799999 -0.87943637 -0.3826074 -0.28320155 0.17192814
9.6953297 -1.3510813 0.17088233 23.666666 -0.93037367 0.32876053 -0.1622384 0.16535452
-11.690129 -1.0882431 0.2049378 37.333332 0.9224844 -0.2441075 -0.29905537 0.11458313
-11.520427 -0.93023592 0.20174985 43.5 0.95757949 -0.16297574 -0.2376561 0.1216538
8.9620724 -0.89719093 0.15721826 43.799999 -0.99733716 0.072831191 0.0037745589 0.16681728
9.4196119 -1.0129434 0.165379 46 -0.36889639 0.45127991 -0.81256497 0.19719046
9.6587 -1.1295098 0.16974211 33 -0.98896348 0.13011032 0.07086914 0.17987879
17.867567 -0.83948773 0.31222355 42 -0.48211861 -0.8757596 0.024631985 0.089646243
-11.728872 -0.50339687 0.20491917 30.200001 0.62566453 0.59731108 -0.5017603 0.21897124
-11.4652 -0.69282693 0.20049325 38.400002 0.98281211 -0.12474456 -0.1360849 0.14017759
8.9622955 -0.54654068 0.15673134 33.75 -0.97431856 0.014199246 0.22472587 0.18424635
9.3489609 -0.73313779 0.16368961 38.599998 -0.83140284 -0.23902887 0.50163186 0.26634255
9.6665678 -0.55567801 0.1690091 19 -0.84865338 -0.41471672 0.32832536 0.18794397
17.183493 -0.4499656 0.30004179 23 -0.75514603 -0.65111738 -0.076161616 0.15776312
17.211811 -0.63112843 0.30063516 51 -0.67946392 -0.70011419 0.21947399 0.077836469
-12.55656 -0.23206456 0.21921386 46.333332 0.54363483 0.83345503 -0.099065453 0.13674985
-12.197829 -0.069550708 0.21291935 30.333334 0.3137643 0.92771661 -0.20222194 0.1267218
-11.791912 -0.23848999 0.20588604 55.5 0.59136492 0.63235754 -0.50041121 0.21972805
-11.501965 -0.31328553 0.20084229 14.5 0.86678314 0.48763868 -0.10438094 0.21730857
9.1063929 -0.33294165 0.15906124 14.25 -0.90935379 0.11189929 0.40069225 0.19916819
16.581249 -0.086820006 0.28943074 19 -0.3260712 -0.82830876 -0.4556118 0.056546479
17.328051 -0.23310196 0.30249676 44.166668 -0.77782714 -0.57056797 -0.26350918 0.18055689
-14.174852 0.37613177 0.24751003 42 0.60642779 -0.7156204 -0.34660175 0.089027487
-13.809929 0.22350366 0.24108756 38.799999 0.70557481 -0.6580314 -0.26298088 0.087209061
-12.211016 0.051102001 0.21314624 40 0.31376591 0.92771614 -0.20222212 0.12672147
15.417683 0.34988177 0.26918593 4 -0.16163933 -0.948452 -0.27260146 0.098921187
17.026051 0.2062442 0.29721448 46.5 -0.32323444 -0.79632849 -0.51125389 0.12900095
17.240124 0.20762984 0.30094931 36 -0.72693712 -0.62817669 -0.27741051 0.16670401
-14.059447 0.42464188 0.24552046 44 0.70569915 -0.65792483 -0.26291379 0.08716917
-13.787582 0.63807696 0.24092698 43 0.9752782 -0.18335271 -0.12334572 0.12924467
-13.513678 0.52624536 0.23606125 28.5 0.88807863 -0.45473418 -0.067329213 0.083947212
15.440113 0.57193148 0.26970366 42.666668 -0.36769196 -0.89881456 -0.23861057 0.077242531
15.66301 0.65230906 0.27363628 32 -0.44083905 -0.8638925 -0.24361995 0.077291816
-13.769651 0.96909904 0.24095228 34.25 0.99369478 -0.025061969 -0.10928249 0.17903739
14.273712 1.0447264 0.24981956 43.666668 -0.53416854 -0.76967567 -0.34966189 0.084815428
15.195611 0.92407906 0.26573035 40 -0.42202491 -0.79329687 -0.43883371 0.057851773
15.365939 0.85366452 0.26862743 45 -0.40051159 -0.88186949 -0.24879053 0.064849429
-14.423014 1.2694678 0.25272831 48 0.61390513 -0.11675824 -0.78069711 0.095682457
-14.042871 1.3101336 0.24618365 26 0.72410929 0.22776826 -0.65098947 0.15708508
-13.826975 1.4318956 0.24264431 38.799999 0.73293173 0.28315371 -0.61857498 0.13764472
-13.481548 1.5635543 0.23689896 26.5 0.8371973 0.24456263 -0.48917255 0.13606884
13.511717 1.5550382 0.23740509 35.5 -0.52548128 -0.84493446 -0.099776089 0.05263181
14.246984 1.366204 0.2498287 44.57143 -0.5144034 -0.80815876 -0.28682491 0.095866792
-13.545677 1.7628293 0.23843478 27.5 0.77263498 0.31257465 -0.55256873 0.13871746
-9.2976742 1.7559829 0.16516957 20.5 -0.041589368 -0.93457824 -0.35331836 0.24336578
-9.049015 1.9065523 0.16142079 47 0.4198637 -0.67884678 -0.60239643 0.21157207
13.156166 1.8185358 0.23182613 52.333332 -0.92681235 -0.37075764 -0.059646565 0.054967135
13.374023 1.7918491 0.23554465 40.599998 -0.6147514 -0.78235781 -0.099984862 0.079224534
-15.320217 2.1548698 0.27004981 23 0.89115393 0.4523268 -0.035286464 0.15297304
-14.905959 2.3080621 0.26328701 33 0.83022022 0.55690604 0.024290305 0.11445275
-8.9964838 2.0429263 0.16103335 56.75 0.21494207 -0.75309169 -0.62181407 0.17496254
-8.6564093 2.2028358 0.15592296 47.090908 0.34737343 -0.7896831 -0.50569975 0.1461781
-8.2301388 2.3246057 0.14927916 55.75 0.58452278 -0.80022794 -0.1340462 0.16638945
13.046177 2.1756296 0.23087594 53.555557 -0.81941313 -0.54999763 -0.16144602 0.067839213
-15.494325 2.6513977 0.27438676 24 0.75411344 0.64242893 -0.13637424 0.20153475
-8.5355492 2.6047783 0.15577435 46.833332 0.63552004 -0.62482136 -0.45355543 0.21093635
-8.2282658 2.6831975 0.15108299 43.142857 0.96058875 -0.27408755 -0.046316542 0.22463624
11.855832 2.7480392 0.2124307 58 -0.64352912 -0.7504279 -0.15075894 0.1073117
12.226459 2.6345172 0.21831216 26.5 -0.28496164 -0.92080575 -0.26629603 0.082311831
13.043797 2.5737805 0.23207776 54.625 -0.73851514 -0.47250414 -0.4809733 0.13771106
-16.528961 3.1231804 0.2936193 14 0.55098349 0.80212337 0.23025055 0.093859158
-16.197115 3.0048819 0.28754583 57 0.57541651 0.817119 0.034819629 0.16807723
-15.952251 2.8990149 0.28300825 38 0.72501737 0.67639244 0.12978056 0.19332536
-8.5273104 3.1154902 0.15846786 73 0.4000735 0.82245332 -0.40436599 0.21042857
-8.2036867 2.9198229 0.15199883 30.166666 0.71814233 0.1968118 -0.66748536 0.14306404
-7.9303093 3.1161201 0.1487294 17.666666 0.78776485 -0.21041295 -0.578924 0.13271675
11.566197 2.9701662 0.20845154 53.75 -0.87480009 -0.37836239 0.30259985 0.10476962
11.737642 2.9979234 0.21147518 49.25 -0.87481368 -0.3784312 0.3024748 0.10470325
12.496617 2.8298898 0.22365259 43.5 -0.37804586 -0.89222944 -0.246998 0.087106451
13.070679 2.888135 0.23365282 43 -0.80271369 -0.58187634 -0.13065462 0.16217227
-17.429029 3.4194367 0.31002453 11 0.62050533 0.76828331 0.15720619 0.059927095
-8.8055334 3.3537028 0.16447149 29 0.81532258 0.36952052 -0.44576177 0.14984821
-8.6165934 3.4202511 0.16181871 42 0.60270929 -0.67577529 -0.42434573 0.18811063
-8.1469154 3.5029466 0.15479702 31.666666 0.40901509 -0.25703162 -0.87558061 0.17987776
-7.9063148 3.2663357 0.14932279 33 0.40587351 0.15413128 -0.90083861 0.16740941
11.556121 3.4706764 0.21061563 52.666668 -0.96093994 -0.10589863 0.25569478 0.055541713
11.724883 3.391098 0.21305199 52.799999 -0.96094185 -0.10583001 0.25571623 0.055549223
-8.0838385 3.824445 0.1561176 45.666668 0.63982916 -0.14730336 -0.75426805 0.14403169
-7.9792037 3.6936712 0.15347646 21 0.58456856 -0.13076286 -0.80073756 0.12181975
-7.5429482 3.7383361 0.14694926 36.599998 0.98744398 0.070979461 -0.14112519 0.14529374
11.487593 3.7867026 0.21113224 61.599998 -0.96682048 0.0066444152 0.25537023 0.083963752
11.689692 3.673872 0.21388507 44.666668 -0.97602105 0.03630333 0.21462756 0.069928683
-8.0285826 4.2038445 0.1581886 38.666668 0.79816324 0.42534712 -0.42663249 0.16451748
-7.9898825 4.2009497 0.15757778 20.5 0.79812008 0.42540681 -0.42665362 0.16453333
11.552116 4.2585535 0.21490893 58.5 -0.99049139 -0.11740085 0.07172057 0.12663727
11.745708 4.1849909 0.21765769 56.875 -0.98688579 -0.066351727 0.14715281 0.12794052
-10.450848 4.7077646 0.20007439 14 0.70872802 -0.56377971 -0.42409551 0.14028397
-10.373198 4.7361155 0.19904469 17 0.66374409 -0.44956994 -0.59777135 0.15433876
11.400438 4.5669956 0.2143776 45.111111 -0.60046929 -0.76624423 -0.22870576 0.11425675
11.615475 4.4146228 0.2168985 45 -0.84312677 -0.52020448 -0.1361049 0.11870115
-10.422031 4.8665175 0.20077249 35 0.72720116 -0.28803968 -0.62306631 0.13654159
-10.31537 4.9911027 0.20002951 46.714287 0.6893326 -0.6347447 -0.34916994 0.17458448
10.612371 5.0462985 0.20512064 37.857143 -0.43497747 -0.63911736 -0.63428992 0.052270804
11.104692 5.0209599 0.21272738 36 -0.54212719 -0.77425599 -0.32653579 0.095630243
11.320727 4.8812404 0.21519399 44.333332 -0.62734789 -0.74862033 -0.21448146 0.10581544
-10.527596 5.2994285 0.20572898 32 0.91507012 -0.20050995 -0.34991783 0.150435
-10.274197 5.4302211 0.20285514 32.222221 0.72748047 -0.36985603 -0.57790887 0.17083105
-9.9696426 5.5082483 0.19881782 14.5 0.4891606 -0.72190446 -0.48946497 0.17495085
10.275221 5.5812879 0.20410588 42.5 -0.92452925 -0.14205864 -0.35364538 0.10914609
10.586082 5.4007359 0.20744707 52.111111 -0.61219311 -0.47412542 -0.63279122 0.12204292
-9.8424292 5.7581658 0.19905439 41.888889 0.48217714 -0.43926349 -0.75799251 0.17816716
-9.5844955 5.6705136 0.1943849 35 0.65906173 -0.2176442 -0.71990877 0.19432746
10.262261 5.8147941 0.20589653 35.799999 -0.93048286 0.30046111 -0.20958237 0.095182911
10.440968 5.8386493 0.20882386 27.666666 -0.99250752 0.10430805 -0.06362921 0.13015899
-10.137683 6.0937414 0.20646198 24 0.72602373 -0.68700624 0.030198647 0.15694046
-9.8115311 6.1327286 0.20196621 27.6 0.50186074 0.21835844 -0.83693206 0.23431711
10.285286 6.146173 0.20914963 25.25 -0.9741407 0.17863744 -0.13834205 0.10036895
10.468039 6.2426772 0.21274483 48 -0.99912006 0.03143945 -0.027760709 0.10398126
-9.5412045 6.4113789 0.20065032 31 0.50386387 0.2163651 -0.83624601 0.23431376
-6.0813828 6.5473456 0.15597796 34 0.93269223 0.067063607 0.35438368 0.13513997
-5.7414727 6.6427612 0.15329029 21.333334 0.44635594 -0.8353129 -0.3209652 0.19892178
-4.751987 6.6301179 0.14238545 51.25 0.38916701 -0.80877507 -0.44094431 0.1110937
-12.669714 6.9396586 0.25215238 7 0.38505176 0.22054273 -0.89615619 0.13958926
-5.4003024 7.0597539 0.15515189 31.333334 0.39741585 -0.7676174 -0.50281626 0.18526934
-4.8322163 7.0204086 0.14876431 31 0.19399686 -0.73196697 -0.65313816 0.17121136
-4.7678142 7.0051041 0.14790913 56.5 0.4450222 -0.58028871 -0.68207055 0.15988527
-11.873402 7.5933552 0.24600913 18 0.68428934 0.60129207 -0.41254818 0.18422633
-5.4779634 7.4790015 0.16181871 54 0.12138714 -0.85385317 -0.50616193 0.20052712
-4.9699731 7.4279227 0.15601142 51.5 0.51525414 -0.72015059 -0.46464637 0.18669359
-4.6408486 7.3563056 0.15182431 46 0.69532079 -0.20595555 -0.68855739 0.09323708
-11.893203 7.7237182 0.24753331 13.333333 0.67010313 0.58196992 -0.46073079 0.18150236
-4.6282039 7.7969227 0.15827587 44.375 0.68809628 -0.2038815 -0.69638777 0.10413966
-4.6392989 8.0720377 0.16252846 43.333332 0.7464118 -0.071268864 -0.66165709 0.11078661
-13.114326 8.6816578 0.27452636 23 0.89787507 0.39767322 -0.18888183 0.065482922
-6.9326167 8.6819324 0.19393115 25.75 -0.64618719 -0.68892962 -0.32835668 0.085618451
-4.8398652 8.6069851 0.17235997 27 0.42851934 -0.85677385 0.28689668 0.1465573
-4.7997332 8.5355606 0.17092887 35 0.81480664 0.26468724 -0.51578176 0.11084969
-13.088414 8.9588013 0.27685335 28.666666 0.90321374 0.39480603 -0.16832463 0.063743263
-7.6761241 8.908658 0.20526648 9 -0.58529538 -0.77055925 -0.25232473 0.05546264
-7.3290353 8.9541702 0.2019767 14.5 -0.58353776 -0.75841689 -0.29032317 0.065701358
-7.6576619 9.2236948 0.20925435 22 -0.50054592 -0.79116428 -0.35144407 0.055174414
14.687337 9.5404358 0.30570796 50.666668 -0.40219697 -0.86588526 -0.29745641 0.11845247
15.032089 9.4251652 0.30970341 42.799999 -0.41766265 -0.82074761 -0.38978356 0.06884113
-13.781329 9.7899714 0.29507366 34.666668 0.99455416 0.078543603 0.068505168 0.14835337
-13.250683 9.9381781 0.28911656 38 -0.3896105 -0.7105937 -0.58588409 0.20108564
13.890744 9.8719091 0.2974588 49.333332 -0.65635777 -0.67368585 -0.33962026 0.06930726
14.234852 9.9303188 0.30295634 55 -0.65802002 -0.71923321 -0.22296453 0.07749261
14.595598 9.8443193 0.30730698 41.857143 -0.41834024 -0.83170581 -0.36504373 0.097076893
-14.024762 10.185844 0.30255491 27 0.99948621 0.031324778 0.0067847893 0.14120573
-13.713587 10.141875 0.29772061 31.5 0.91152275 -0.40688172 -0.059778903 0.20329021
-13.323395 10.138837 0.29224056 29 0.54474097 -0.83628637 -0.062308226 0.20675486
-9.0460358 10.224686 0.23829515 5 -0.5789454 -0.81534821 -0.0054402999 0.035898607
13.456375 10.320617 0.29601607 45 -0.70077324 -0.70942551 -0.075049169 0.10069164
13.813505 10.217615 0.29991087 47.75 -0.69629586 -0.69753617 -0.16916102 0.082782798
14.029591 10.150173 0.30225825 52 -0.65636665 -0.67366374 -0.33964694 0.069318004
-9.1153126 10.525009 0.24304222 5 -0.41099733 -0.9106667 -0.042039726 0.11687028
13.288696 10.561903 0.29629824 48.5 -0.87094206 -0.47837687 -0.11231872 0.092993915
-1.3412672 11.122377 0.19555072 38.200001 -0.076491825 -0.83404452 -0.54636866 0.1834704
-0.58467102 11.137383 0.19467285 32 -0.18725099 -0.97951156 0.074122526 0.17603309
13.314623 10.88896 0.30023378 45.25 -0.89842242 -0.43707493 -0.04245688 0.10688695
-11.390924 11.478978 0.28228104 32.5 0.52140957 -0.61885822 -0.58749181 0.044731312
-11.138784 11.546534 0.28004134 22 0.52726299 -0.52661586 -0.66683543 0.11225138
-10.43887 11.47619 0.27079153 26 -0.4496257 -0.81536782 0.36470816 0.12433581
-10.333771 11.522533 0.27016327 16 -0.48314625 -0.83014226 0.27826884 0.092721932
