# .PCD v0.7 - Point Cloud Data file format
VERSION 0.7
FIELDS x y z intensity normal_x normal_y normal_z curvature
SIZE 4 4 4 4 4 4 4 4
TYPE F F F F F F F F
COUNT 1 1 1 1 1 1 1 1
WIDTH 567
HEIGHT 1
VIEWPOINT 0 0 0 1 0 0 0
POINTS 567
DATA ascii
8.8792601 -9.1387224 -0.22241348 30 -0.62188703 -0.029268522 0.78255987 0.085388608
-18.526943 -8.5480633 -0.35615474 32.200001 0.69499242 0.61490005 0.37267074 0.035310883
-18.365202 -8.7400818 -0.35501686 34 0.69497442 0.61490548 0.37269515 0.035333965
-19.23064 -8.0325098 -0.36377797 30.5 0.71152914 0.53711456 0.4530279 0.046055824
-18.987921 -8.2426634 -0.36132297 30.5 0.71149808 0.53717738 0.45300198 0.046056803
-18.707312 -8.395628 -0.35791397 35 0.69499099 0.6149137 0.37265089 0.035301644
-2.34516 -8.0146542 -0.1457625 24 0.40068579 0.6998648 0.59130371 0.19472305
-19.748394 -7.6491446 -0.36966527 32 0.80740583 0.45028031 0.3812393 0.04318732
-19.440287 -7.8670945 -0.36607003 32 0.7406919 0.53091884 0.41170466 0.047799874
-2.2733903 -7.923039 -0.14387764 28 0.71339381 0.65498793 0.24911873 0.19066554
5.8902431 -7.8478999 -0.17127793 10.666667 0.25078285 0.26733488 0.93039781 0.16502646
6.058044 -7.7025356 -0.17105104 15 -0.36471748 -0.21493851 -0.90597051 0.13834187
-19.936806 -7.4233537 -0.37134361 23.75 0.80742037 0.45025998 0.38123265 0.043174967
-3.3820152 -7.3747287 -0.14162786 12.909091 -0.062666729 0.73036659 0.68017459 0.086208627
-3.0750835 -7.3701024 -0.13940111 14.25 -0.06037128 0.79561907 0.60278147 0.10095104
-2.5429156 -7.2949524 -0.13485475 12.5 0.35656908 0.71010381 0.60713351 0.1924623
-2.2528708 -7.3474441 -0.16080073 15.8 0.39253265 0.79425389 0.46376601 0.21898881
6.0601339 -7.54 -0.16885203 12 -0.37308139 0.0068976399 -0.92777294 0.16259941
-3.6197205 -6.9327254 -0.13651273 8 -0.085358202 0.3114399 0.94642437 0.058358137
-3.477782 -7.0772276 -0.13765585 5.75 -0.12972648 0.59123981 0.79599404 0.095039859
-2.8495326 -6.9668484 -0.19590759 11.5 0.047615461 0.36453629 0.92997104 0.10879993
-2.583915 -7.0221224 -0.27715966 25.1875 -0.05896664 0.30343369 0.95102626 0.10973164
-2.2844653 -6.998383 -0.38592538 25 0.20760986 0.42589912 0.88062936 0.15766928
-1.9434465 -7.1432161 -0.12921762 2 0.90590006 0.41312337 -0.093135417 0.13454597
6.043437 -7.1286941 -0.16313115 15.2 -0.40015295 0.28031299 -0.87252635 0.19757536
12.112529 -6.9801049 -0.24402453 59.57143 0.20578593 0.68581861 0.69807225 0.20119491
-19.484282 -6.4777827 -0.35840264 8 0.80736828 0.45032471 0.3812665 0.043231029
-3.7288918 -6.4983001 -0.39265054 27 0.073418587 0.017814867 0.99714202 0.057516001
-2.8633916 -6.6446695 -0.30576658 6.5714288 -0.082240656 0.22589438 0.9706741 0.069598988
-2.6193523 -6.5728455 -0.27134722 16.799999 -0.002410301 0.34572011 0.93833458 0.10013749
5.9550576 -6.7333503 -0.1569041 19.6 0.15274903 0.49275106 -0.8566587 0.17747633
6.0833321 -6.6660137 -0.15752542 30 0.082098328 0.6389873 -0.76482368 0.16601175
11.913314 -6.5361648 -0.23718984 52.333332 -0.97345287 -0.1990246 -0.11304295 0.15685132
12.183088 -6.7949524 -0.24349597 54 -0.34502423 0.63280129 0.69319594 0.18856762
-19.428885 -6.3841367 -0.3569715 8 0.80736828 0.45032471 0.3812665 0.043231029
-4.7238073 -6.0158401 -0.13351092 5 0.2223243 0.44620177 -0.86687708 0.04172254
-4.0157223 -6.0579019 -0.38090113 22 0.076408088 0.23918162 -0.96796381 0.065329075
-3.8346128 -6.1761136 -0.38103852 15.625 0.0054860753 0.19303286 -0.98117691 0.058831349
-2.9754484 -6.2747092 -0.36394426 2.6666667 -0.040021539 0.095247932 0.99464875 0.043699689
-2.749974 -6.2438784 -0.35755929 8 0.0084963134 0.16494578 0.98626614 0.050992221
11.41206 -6.0295877 -0.22529311 49.5 -0.98306406 -0.048281211 -0.17678773 0.14374715
11.879229 -6.0672503 -0.23283255 57.5 -0.21934362 -0.016191529 0.97551328 0.1628122
12.056593 -6.2362018 -0.23693386 66 -0.29586601 0.067428872 0.95284665 0.14902087
-14.474997 -5.8129883 -0.272275 26.5 0.072598197 -0.069620848 0.9949283 0.02147074
-4.8527336 -5.8847451 -0.39974207 22 0.23001704 0.55162436 -0.80174977 0.029851254
-4.5703168 -5.8698478 -0.30288002 19.083334 0.22234459 0.44626683 -0.8668384 0.041719195
-4.1633768 -5.7959623 -0.25360852 20.161291 0.12778348 0.34734446 -0.92899042 0.057268318
-3.9704404 -5.8975635 -0.24863839 13.5 0.020625507 0.26251253 -0.96470809 0.0570147
11.478046 -5.9878297 -0.22597377 56 -0.98397338 0.1144138 0.13676928 0.11327966
11.702594 -5.8484378 -0.22835891 44 -0.98562682 -0.08158505 -0.14793143 0.12268415
12.120638 -5.8464212 -0.23489544 64.800003 -0.567047 0.12331251 0.8144027 0.15064974
-15.039796 -5.3514581 -0.27864513 7.3333335 0.025528803 0.054466709 -0.99818921 0.048634183
11.821198 -5.4019485 -0.22686966 52 -0.91357279 -0.39934069 -0.076888226 0.15338528
12.00488 -5.4835958 -0.23037177 63 -0.64890891 -0.39531115 0.65011263 0.16022657
11.906261 -5.0182486 -0.22554095 55.799999 -0.57586175 0.30389744 -0.75896615 0.061489135
19.741377 -4.9183059 -0.35512158 28 -0.80647641 -0.58362705 -0.094737835 0.064836167
-15.01209 -4.590837 -0.27402273 22.857143 0.066193908 0.043969955 0.9968375 0.046174329
12.718821 -4.4715195 -0.23532824 26 -0.53502572 0.061301216 -0.84260887 0.153156
-15.34333 -4.1382365 -0.2773985 31.285715 0.079831116 0.086515196 0.99304688 0.052791908
-15.105845 -4.2752166 -0.27403769 23 0.066197358 0.043970514 0.9968372 0.04617523
-1.0414385 -4.0010076 -0.21667089 6 0.99939615 -0.01484447 0.031415634 0.20737362
0.37352797 -4.1606135 -0.07291615 23.666666 -0.74201125 0.32235882 0.58779591 0.07132183
0.45338044 -4.1517234 -0.19051112 18.642857 -0.82366216 0.22581086 0.52018273 0.068970948
12.788559 -4.3710279 -0.23590419 29 -0.48952168 -0.13454878 -0.86154807 0.16228199
12.941402 -4.3003879 -0.23803918 39.666668 -0.73939455 0.12339728 -0.66186774 0.29303992
-16.064487 -3.6026151 -0.28737134 32 0.68623745 0.67217273 0.27796039 0.012620271
-15.825042 -3.8058958 -0.2841121 32 0.68621594 0.67216879 0.27802309 0.012632607
-0.95260161 -3.9153049 -0.20411916 7.9499998 0.94608927 0.001165739 0.32390398 0.1831869
-0.76733243 -3.7995336 -0.21537313 4.181818 0.0046068919 0.75890905 0.65118033 0.078980438
0.54262304 -3.8079693 -0.086907931 31 -0.73173475 0.32356274 0.59989291 0.074083306
-16.224985 -3.4574304 -0.28957036 33.599998 0.68623734 0.67217249 0.27796134 0.012620503
-0.07656467 -3.2300775 -0.39675245 15.333333 -0.14015506 0.11413251 0.98352951 0.032386187
0.17174852 -3.222672 -0.39628431 17.142857 -0.20211016 0.091540486 0.9750753 0.033774421
0.50210917 -3.3965356 -0.20942603 10.75 -0.47805822 0.30312669 0.82436311 0.088603728
1.3275054 -3.2335775 -0.061013613 12 0.0024035841 0.51164514 0.8591935 0.16381627
1.9315405 -3.2019515 -0.065272003 27 0.15772761 0.97622776 -0.14866537 0.18740018
2.2024519 -3.3380661 -0.083119296 32.090908 0.28996751 0.95297003 -0.088130735 0.11197254
2.4491878 -3.492841 -0.22357923 21.666666 -0.0011143866 0.9988063 -0.04883403 0.094711676
8.7805281 -3.4345961 -0.1645762 26 -0.94198781 -0.28562295 -0.17629099 0.073187217
8.9369268 -3.3091147 -0.16635197 25.375 -0.9520852 -0.29563802 -0.078307062 0.11224214
10.541611 -3.2772868 -0.19269201 15 -0.011977708 0.079296969 -0.99677902 0.12073484
-0.016713198 -3.1859858 -0.39120063 13.5 -0.18250081 0.078880288 0.98003638 0.033158485
0.11061051 -3.1201713 -0.38352284 16.928572 -0.18250084 0.078879416 0.98003644 0.033158608
0.64530903 -2.9727919 -0.19171605 13.351064 -0.27274403 0.061170064 0.96014005 0.088148721
0.95865703 -2.922976 -0.23238581 13.773334 -0.45248729 0.33616129 0.82598478 0.13711448
1.3454493 -2.9430902 -0.17754827 19.074074 0.084070206 0.48896825 0.86824089 0.21072151
1.8043565 -2.9447005 -0.18555136 26.893618 0.42302987 0.69036311 0.58689392 0.19971816
2.2033436 -3.0397587 -0.065533787 20 0.36556655 0.92229617 -0.12542304 0.12277708
8.935976 -2.9249787 -0.16413116 17.5 -0.91977125 0.013651752 -0.39221746 0.083629787
10.020257 -2.9814565 -0.18248236 4 0.034975197 0.1021065 0.99415839 0.11142797
10.614819 -3.1987393 -0.19351228 30 -0.077945963 -0.088583618 0.99301428 0.099305376
-17.266941 -2.474303 -0.30447471 32 0.6630258 0.68623459 0.29913017 0.011158719
-17.097273 -2.6008584 -0.30186847 34.666668 0.66303694 0.68623555 0.29910335 0.011153644
0.21980181 -2.5028241 -0.38223353 13.612904 -0.17691095 0.084127434 0.98062485 0.025341267
0.67155421 -2.707675 -0.28400618 19.111111 -0.18986638 0.15990305 0.96870106 0.098565526
0.99851435 -2.7043121 -0.1742987 13.126985 -0.46177772 0.32231158 0.82636344 0.16336252
1.3267981 -2.5699286 -0.22485505 22.887096 -0.01256919 0.51277751 0.85842955 0.16951881
1.7294958 -2.7002895 -0.1804243 18.714285 0.38342085 0.64614677 0.65991116 0.18630213
9.4514847 -2.5113385 -0.170702 21 -0.92777938 0.32647574 0.18066287 0.23421106
-17.701267 -2.0699253 -0.31108332 33 0.66303688 0.68623519 0.29910415 0.011153807
-17.457394 -2.3025875 -0.30736306 30.25 0.66302556 0.68623441 0.29913104 0.011158687
-10.170079 -2.0387015 -0.18105125 13 0.17848596 -0.095164105 0.97932965 0.011793947
0.23518577 -2.3964562 -0.38138729 3.5 -0.095701568 0.13306162 0.98647642 0.022765502
1.1290487 -2.3144891 -0.2252586 22.5 -0.032406099 0.3476899 0.93704933 0.099782079
1.2789183 -2.261466 -0.28830498 15.941176 -0.0090546561 0.35293227 0.93560511 0.091550864
9.1272602 -2.1390986 -0.16363376 11 -0.94709027 0.30219916 -0.10814647 0.28851101
9.4880133 -2.1624548 -0.16986677 17.571428 -0.98684776 0.090508983 0.13393898 0.19927996
9.6183529 -2.040935 -0.17162697 8 -0.88010532 -0.08563114 0.46699235 0.19362035
18.728184 -2.1669247 -0.32908258 8 -0.49456093 -0.863572 -0.098249041 0.085754529
-18.157902 -1.6109679 -0.31819227 8 0.66303682 0.68623519 0.29910439 0.011153751
-17.860184 -1.9307089 -0.3135674 24.5 0.66303688 0.68623519 0.29910427 0.011153807
-10.114417 -1.7913052 -0.17930603 46.272728 0.1368278 -0.21485938 0.96701276 0.018804202
-0.4067401 -1.6109682 -0.20400929 2 0.21922168 0.63046426 -0.74461848 0.1359001
-0.2851502 -1.643171 -0.21436568 7.9824562 0.16596836 0.6198253 -0.76698822 0.13126032
9.1925707 -1.6838605 -0.16312763 26 -0.9730106 -0.23067014 0.0064557157 0.12943211
9.4371595 -1.8607916 -0.16790378 26 -0.81172836 -0.18305133 0.55460721 0.12463299
18.068689 -1.7079941 -0.31679606 16 -0.61786211 -0.70214641 -0.35388827 0.077054061
-18.462275 -1.3169175 -0.32307896 16 0.062626518 -0.037519325 -0.99733156 0.059080642
-18.274275 -1.4926523 -0.32004222 27.333334 0.062626518 -0.037519325 -0.99733156 0.059080642
-12.809063 -1.27174 -0.22468229 18 0.70851755 -0.6759882 -0.20259009 0.19621702
-12.758231 -1.266812 -0.22379221 18 0.52359277 -0.7321294 -0.43570304 0.17944451
-11.756913 -1.4998404 -0.20688082 5 0.57674676 -0.46765333 -0.66982353 0.097092077
-0.40225825 -1.5955633 -0.26061985 0 0.21922168 0.63046426 -0.74461848 0.1359001
-0.37243119 -1.5921328 -0.21210405 11.878788 0.21922168 0.63046426 -0.74461848 0.1359001
9.0228462 -1.4119158 -0.15942772 22.875 -0.99733233 -0.023981672 0.068942346 0.14369304
9.3096933 -1.3786041 -0.16428532 24.333334 -0.96372008 -0.26109311 0.055443488 0.15515439
18.120014 -1.5852958 -0.31749418 8 -0.61807698 -0.70199353 -0.35381633 0.076982312
-12.862067 -0.96258783 -0.22513604 6 0.86789268 -0.49003923 -0.081387252 0.17673942
-12.612734 -1.010427 -0.22087765 24 0.58859938 -0.37000901 -0.71877962 0.095539935
-7.5133877 -0.89479059 -0.39654955 18 0.023618136 -0.031874873 0.9992128 8.7404378e-06
9.003933 -1.0894637 -0.15831079 10 -0.97978824 0.15315174 -0.12868363 0.14769034
9.3593998 -0.96610355 -0.16424896 11.25 -0.503438 0.80622256 0.31073356 0.16871378
-12.507277 -0.73869538 -0.21869612 21 0.48832041 -0.32018831 -0.81180209 0.082035936
-12.180889 -0.56190646 -0.21285391 27.125 0.59612477 -0.35357535 -0.72084653 0.049587701
-7.4082656 -0.60863692 -0.38960287 18.666666 0.023761475 -0.033447228 0.99915802 4.6559685e-06
9.1290808 -0.65972775 -0.15977095 6.6666665 -0.50322586 0.80632567 0.31080976 0.16872078
16.900833 -0.47208303 -0.29512021 32 -0.42742333 -0.81138635 -0.39869973 0.048059527
-12.082141 -0.18876487 -0.21092978 17.625 0.66512567 0.075475052 -0.7429074 0.12614898
-11.94674 -0.18558793 -0.20855626 22 0.77521592 0.058089815 -0.62901968 0.12912551
-7.2598252 -0.21733175 -0.38068485 22 0.026486689 -0.035471585 0.99901962 9.1731536e-06
-7.1861229 -0.015052494 -0.37660959 26 0.026487794 -0.035471983 0.99901962 9.1399834e-06
16.193018 -0.28547728 -0.28269407 8 -0.39116186 -0.62769324 -0.6730479 0.033448707
-12.264417 0.20412979 -0.21411486 24.25 0.77028579 0.47241575 -0.42834941 0.12379284
-11.92573 0.10407472 -0.20817231 33 0.68524122 0.21915568 -0.69456112 0.12721808
-7.095438 0.19460002 -0.37204325 24.5 0.0300059 -0.03819843 0.99881959 1.7616934e-05
6.2549734 0.17471753 -0.32793713 16 -0.049913954 -0.051571637 0.99742115 0.0019701167
6.4507141 0.23663113 -0.33829966 6 -0.04991572 -0.051571686 0.99742109 0.0019701102
14.712407 0.15041278 -0.25682265 56.400002 -0.29877701 -0.64538324 -0.70300269 0.11261864
14.914927 0.33581746 -0.26040736 40 -0.41613168 -0.48421142 -0.76965827 0.10918939
-12.557423 0.71978408 -0.21955128 38 0.64981031 0.73511928 -0.1932517 0.07918492
-12.215355 0.50826424 -0.21340804 42.333332 0.65391338 0.714293 -0.24936475 0.16177543
-6.9248028 0.60035992 -0.36433393 26.444445 0.034416765 -0.041402157 0.99854958 2.5443274e-05
5.9248462 0.74743092 -0.31296906 2 -0.056795854 -0.044504203 0.99739343 0.0021417213
6.5791879 0.66712898 -0.34656873 10 -0.054548748 -0.048573203 0.99732906 0.0021078431
15.022931 0.52011162 -0.26238647 63.400002 -0.41613168 -0.48421147 -0.76965815 0.10918939
15.463291 0.75357938 -0.27023306 45 -0.4219873 -0.46607098 -0.77762759 0.097057626
-13.281718 1.1325678 -0.23267548 21 0.65001196 0.56956965 0.50306547 0.09715163
-13.001154 0.83618701 -0.22740486 25 0.5563134 0.76932412 0.3140952 0.069616504
-12.497864 0.86948842 -0.21867865 30 0.64982599 0.73510671 -0.1932465 0.079177856
-12.399269 0.93012768 -0.21703814 52 0.588561 0.76655895 -0.25687239 0.11647036
-6.8068695 0.8719787 -0.35965273 28 0.036092483 -0.043748498 0.99839044 4.2877611e-05
-6.6702847 1.0564845 -0.3539795 27.6 0.048610974 -0.057502791 0.99716109 0.00013798711
13.319458 1.0182583 -0.23317964 52 -0.66965336 -0.47681424 -0.56939656 0.089905851
14.417566 0.80102301 -0.25204766 7 -0.19820304 -0.48707807 -0.85057074 0.10028937
15.422624 0.805574 -0.26956987 7 -0.4219873 -0.46607098 -0.77762759 0.097057626
-13.650827 1.4512284 -0.23962155 30 0.91622174 0.38627961 0.10642268 0.12047698
-13.499174 1.2714009 -0.23667209 16 0.82252926 0.43107572 0.37097085 0.12923624
-6.5346055 1.3336937 -0.3495414 24.799999 0.056646112 -0.069873385 0.99594629 0.00022107468
-6.340971 1.501645 -0.34151831 24.75 0.054570492 -0.069114096 0.99611515 0.00024039492
7.2174706 1.3350983 -0.3846693 7 0.022895232 0.0055715083 0.99972236 0.0010755322
13.326465 1.4660249 -0.23401932 20.75 -0.67099708 -0.47140035 -0.5723151 0.089640394
14.6111 1.4789879 -0.25634095 36 -0.26293966 -0.33696657 -0.90405554 0.053405974
14.960226 1.4328692 -0.26232713 55.5 -0.24226022 -0.48269328 -0.8416158 0.095911324
-13.766949 1.7965323 -0.24234994 31.166666 0.8694582 0.44997191 -0.20388162 0.1001729
-13.485172 1.7841363 -0.23744582 36.666668 0.89477241 0.37421459 -0.24361002 0.10991575
-6.1563239 1.7538905 -0.33553168 22.666666 0.056073651 -0.073686495 0.99570382 0.00028381648
-5.9144673 1.95544 -0.32647172 26.333334 0.05364956 -0.068457395 0.99621046 0.00029104916
5.3819366 1.732778 -0.19714642 24.333334 -0.086880006 -0.054836936 0.99470836 0.0015954721
12.987404 1.8391809 -0.22895813 31 -0.45663899 -0.7709384 -0.44399869 0.096758895
14.082955 1.6718172 -0.24754494 34 -0.35545367 -0.31757772 -0.87908876 0.085638121
-14.203197 2.2904825 -0.25112268 45.75 0.68010545 0.60088575 -0.41999158 0.058015313
-13.820948 2.081778 -0.24396719 37.5 0.7856766 0.42579111 -0.44879192 0.096754946
-5.6973963 2.1876986 -0.31991071 25.636364 0.056290697 -0.071785815 0.99583036 0.00024303899
-5.5713692 2.3758011 -0.31742507 24.857143 0.056485936 -0.070823446 0.99588823 0.00025351567
-3.9124351 2.3401628 -0.39887697 14.5 0.032176834 -0.053403642 0.99805444 0.00023845196
3.8840363 2.2381556 -0.39220083 18.666666 0.0015507035 -0.0062880637 0.99997908 0.00028322576
11.964327 2.0408049 -0.21185476 42.5 -0.80832505 -0.5717752 -0.14029832 0.15178464
12.145004 2.2439911 -0.21558376 44.666668 -0.84284663 -0.50878227 -0.17535728 0.1683277
13.098668 2.0231009 -0.2313491 63 -0.25328341 -0.43148547 -0.86583352 0.12518263
13.265343 2.0962827 -0.23442073 13 -0.33769712 -0.47979838 -0.8097865 0.12769696
-14.940048 2.7313192 -0.26510203 14.5 0.69660223 0.64853644 0.30683208 0.077290334
-14.545155 2.5542729 -0.25777203 54 0.62425107 0.64919698 -0.43457329 0.023550671
-14.321797 2.4377759 -0.25358346 57 0.63644367 0.58775455 -0.49948367 0.041185606
-7.7438021 2.7427807 -0.1433977 5.75 0.18237405 -0.75835961 -0.62580383 0.1542958
-5.6111336 2.4926927 -0.32178241 20 0.05968643 -0.077219911 0.99522591 0.00021838032
-5.4005694 2.54318 -0.31288949 26 0.05817138 -0.072842292 0.99564558 0.00021731248
-5.1889987 2.733268 -0.30736908 26 0.048324354 -0.066496536 0.99661571 2.8866138e-05
-3.7422378 2.564029 -0.3970049 14.08 0.031042546 -0.050138548 0.99825972 0.00024884261
-3.57268 2.7512152 -0.39451668 15.714286 0.037325997 -0.046739176 0.99820954 0.00023048752
3.7648618 2.4040272 -0.39080635 12 -0.0031812629 -0.0025505952 0.99999171 0.00027847465
11.967455 2.644311 -0.21393159 64 -0.99214399 0.066273816 -0.10610356 0.072067156
12.092582 2.5623291 -0.21577658 47 -0.98247838 0.18451253 0.026294811 0.054031942
-15.114936 3.0091774 -0.26901636 36.57143 0.76561463 0.60320461 0.22355843 0.076092355
-8.9588089 2.9644871 -0.16471581 7 0.2473588 -0.39415199 -0.8851316 0.11971621
-8.6602659 2.9178655 -0.15951499 3 0.28963283 -0.59397662 -0.75053626 0.12870412
-7.8178616 2.999938 -0.14617184 15.454545 0.23976272 -0.69751567 -0.67526716 0.19143084
-6.8855433 3.0539086 -0.13148642 11.545455 0.7657153 -0.4052318 0.49946705 0.21235041
-5.0363479 3.0088186 -0.30755544 23.84 0.049031109 -0.065174915 0.99666852 3.0928772e-05
-3.3765922 2.9742703 -0.3938652 14.741936 0.038037453 -0.046746489 0.9981823 0.00022349112
-3.1683526 3.1639881 -0.39174765 19.200001 0.03759446 -0.043028045 0.9983663 0.00021565723
12.188425 2.9826732 -0.21903269 52.42857 -0.98686105 0.027581869 0.15919955 0.091460645
13.772261 2.917345 -0.24572989 6 -0.56372887 -0.57205951 0.59578317 0.11214022
-15.283286 3.4483058 -0.27347919 38.666668 0.81766224 0.4988521 0.28735852 0.13294752
-15.107506 3.3170626 -0.26998875 32.666668 0.80561703 0.57383436 0.14729328 0.094585374
-8.1964226 3.4901881 -0.15550093 20.75 0.26163465 0.053590775 -0.963678 0.16604735
-7.934504 3.2666988 -0.14977656 16 0.27910084 -0.078509174 -0.95704705 0.18295823
-7.595973 3.3122842 -0.14464554 8 0.2962319 -0.34329352 0.89128911 0.20466456
-6.9297161 3.3667796 -0.13448435 14.555555 0.40128455 -0.39144289 0.82809609 0.14680505
-4.8387012 3.219677 -0.30459532 20 0.049739119 -0.063686416 0.99672967 3.6697522e-05
-4.5831084 3.3807545 -0.29856202 18.16 0.050231081 -0.061882261 0.99681866 2.8518787e-05
-4.3211999 3.5760856 -0.29396364 13.428572 0.053737611 -0.057491295 0.99689865 2.691044e-05
-2.9740536 3.3542321 -0.39237511 15 0.039998818 -0.040924061 0.99836135 0.0001966789
-2.7253554 3.556417 -0.39202654 15.090909 0.032709487 -0.041050233 0.99862152 0.00016581612
11.845093 3.5301938 -0.21574664 32 -0.93813634 -0.26582149 -0.221899 0.10523931
12.284744 3.3713591 -0.22237276 31.166666 -0.94600731 -0.19344543 0.26009449 0.10273696
12.433638 3.48207 -0.22538038 40.5 -0.94598043 -0.19347231 0.26017219 0.10280183
-15.989134 3.9983947 -0.28768548 32 0.74896413 0.66250271 -0.011952017 0.072048366
-15.306695 3.7951603 -0.27527931 27.428572 0.76042432 0.63630033 -0.12991066 0.069808811
-8.6000919 3.8413305 -0.1644104 23.25 0.48059109 -0.014338245 -0.8768276 0.12975308
-8.2146111 3.8771105 -0.15855512 11.5 0.050029479 -0.026660953 -0.99839175 0.070468098
-7.9924455 3.6863389 -0.15363353 6 0.032120716 -0.055236813 -0.9979564 0.17302546
-7.3541923 3.8448017 -0.14485498 15.666667 -0.10192725 -0.22264437 0.96955675 0.17853521
-7.1689601 3.6370203 -0.14031734 13 -0.03430802 -0.13131149 0.99074733 0.21204901
-4.1449695 3.8111591 -0.29517481 13.391304 0.054122373 -0.05507547 0.99701428 2.871059e-05
-3.996722 3.9939322 -0.29611689 12 0.054438937 -0.054709937 0.99701726 2.796722e-05
-2.5323536 3.6970201 -0.39213115 15.35 0.030994311 -0.037918821 0.99880004 0.00014613525
-2.2564538 3.8895261 -0.39351198 14.695652 0.031721059 -0.037591051 0.99878961 0.00011559633
11.752647 3.8233628 -0.21573968 59.200001 -0.72927821 -0.49983269 -0.46724784 0.098170646
-15.270658 4.0732584 -0.2758702 11 0.72536153 0.67920488 -0.11194386 0.059375256
-8.8496523 4.2343454 -0.17124301 16 0.87460858 -0.34296533 0.34268746 0.26241928
-8.7306719 4.0267429 -0.16782233 23 0.15527911 -0.13138607 0.97909456 0.1174661
-7.6344709 4.2292824 -0.15234205 25.5 0.074740767 0.040610865 -0.99637574 0.06995108
-7.5327797 4.1493731 -0.15011862 20.6 0.28795061 0.080977365 -0.95421541 0.13304864
-3.806591 4.2069392 -0.29745147 16.428572 0.053623099 -0.051795051 0.99721706 3.5509966e-05
-2.0512795 4.0200109 -0.39485908 14.125 0.025355743 -0.033437617 0.9991191 0.00011074076
-1.8003899 4.1507826 -0.39599213 14.285714 0.023746213 -0.03139988 0.99922484 0.00014408643
-1.407708 4.3263636 -0.39818776 14.153846 0.021052701 -0.02890447 0.99936044 0.00013606939
-1.1934012 4.3954744 -0.39847603 15 0.013768856 -0.022824896 0.9996447 5.2918076e-05
11.913454 4.1813393 -0.22038901 38.599998 -0.61206532 -0.67343926 -0.41455469 0.054442488
-16.475153 4.7397394 -0.29923895 24 0.57777679 0.7750597 0.25584459 0.060242746
-16.351833 4.5433216 -0.29623714 28 0.62740546 0.7591995 0.17314298 0.063653298
-7.9484777 4.6425028 -0.16067682 20.714285 0.040453989 -0.02924492 -0.99875331 0.069024235
-3.4216616 4.5643344 -0.29905188 16.559999 0.053609297 -0.043981858 0.99759287 4.9955979e-05
-1.1351614 4.4211602 -0.3993476 14 0.01376884 -0.022824802 0.9996447 5.2981508e-05
10.947388 4.6128321 -0.20736253 18.4 -0.66075462 -0.37745643 -0.64879113 0.066128217
11.697828 4.6387033 -0.21965599 28.5 -0.74207598 -0.39657572 -0.54041737 0.076758921
-16.861025 5.1613655 -0.30779067 24 0.50805157 0.77469486 0.37647247 0.056002654
-16.622969 4.9321308 -0.30265963 20 0.56757325 0.75743365 0.3227303 0.058475226
-8.0708065 4.8821182 -0.164646 27.5 0.12282746 0.1236331 -0.98469704 0.081047714
-7.8078475 5.0056291 -0.16190599 16.666666 0.70220381 0.25979862 -0.66288352 0.10973129
-7.5777745 5.1614566 -0.16003856 21 0.74353135 0.3052294 -0.59497577 0.1486652
-3.2424736 4.8458066 -0.30557224 18.333334 0.058198232 -0.060283832 0.99648327 0.00068818714
-3.0062084 5.0279646 -0.3070983 19.47826 0.054867394 -0.057075769 0.99686104 0.0007468898
-2.7538211 5.1759229 -0.30726442 24.5 0.053028859 -0.054457441 0.99710697 0.00078743976
-17.037106 5.4101114 -0.31202111 31.200001 0.50805062 0.77469605 0.37647104 0.056003299
-13.594715 5.5811429 -0.25651547 14 0.4232122 -0.10833018 0.89953095 0.15956262
-7.6273127 5.2342682 -0.16146967 29 0.74349195 0.30526718 -0.59500557 0.14866969
-2.5943856 5.4339986 -0.31564564 25.428572 0.051382966 -0.051197957 0.99736583 0.00084754149
10.685648 5.3567748 -0.20864353 5 -0.79130429 -0.61089623 0.025366792 0.15846418
-13.72674 5.7196789 -0.25956964 10.5 0.15188628 0.14338841 0.97794181 0.17958038
-2.4241414 5.6450744 -0.32197082 27 0.051138181 -0.047789924 0.99754745 0.00091354077
-2.2220309 5.8374968 -0.3274233 24.272728 0.05032558 -0.044636726 0.9977349 0.00086600828
-1.9251388 5.9393549 -0.32721934 25.142857 0.05093731 -0.044455387 0.99771196 0.00083200214
-9.2370644 6.0815077 -0.19304106 10 0.72051662 0.57030916 -0.39446589 0.069422729
-2.539413 6.3715501 -0.11972351 8 0.196895 -0.27723557 0.94041103 0.011466523
-1.7272005 6.0752478 -0.33103991 26 0.050038207 -0.042149507 0.99785751 0.00081378734
-1.3890606 6.2249918 -0.33432215 24.210526 0.050335962 -0.042728815 0.99781787 0.00077471795
-1.1929539 6.3683367 -0.33955571 18 0.04559505 -0.040891599 0.99812263 0.00073477032
9.9067602 6.1465287 -0.20350379 5 -0.82021606 -0.57204264 -0.0035841183 0.14604819
10.076241 6.0328979 -0.20499596 11 -0.85785544 -0.36090043 0.36583459 0.17258257
-9.8339939 6.796689 -0.20866098 16 0.67389172 0.56362313 -0.4777016 0.056540921
-0.99470276 6.495976 -0.34446368 18.777779 0.044225689 -0.041629132 0.99815387 0.00069335784
-0.59792262 6.6622968 -0.35061607 21 0.04123465 -0.038603764 0.99840343 0.0006629795
-0.24804437 6.7742443 -0.35529146 17.666666 0.038969599 -0.034612391 0.99864078 0.00062596239
-9.8850174 6.9089465 -0.21051094 25 0.67389685 0.56361908 -0.47769928 0.056536965
-5.1046128 7.1431909 -0.15324958 17.5 -0.00081979181 -0.61552155 -0.78811967 0.17971766
-0.068468526 6.8092642 -0.35688937 16.4 0.022130191 -0.02340634 0.99948108 1.2951807e-05
0.20647506 6.8435631 -0.35887074 16.235294 0.022165267 -0.021941517 0.99951357 8.4869926e-06
0.60651439 6.9206724 -0.36413398 17.625 0.021060297 -0.02030397 0.99957198 4.0245031e-06
0.99760014 7.0096507 -0.37110385 17.866667 0.019055676 -0.018466327 0.99964786 7.520177e-06
1.3911275 7.1028342 -0.37935895 17.866667 0.017460184 -0.015817601 0.99972242 1.0612709e-05
1.7954125 7.1655135 -0.38718146 17.466667 0.015750695 -0.014915291 0.99976468 1.9201259e-05
17.807329 6.8462849 -0.33300936 16.5 -0.36770988 -0.66929191 -0.64562982 0.087256357
-10.44993 7.4677935 -0.22419362 21.5 0.63024032 0.62240732 -0.46411869 0.05918625
-10.245658 7.2409148 -0.2189928 24 0.59825999 0.63296145 -0.49137038 0.035709996
-4.9980836 7.3905172 -0.15575226 23.6 -0.25516868 -0.49149415 -0.83265984 0.16148514
-4.6617885 7.5109591 -0.15430918 22.428572 0.1674273 -0.52725476 -0.83304894 0.14069995
2.1130757 7.2497821 -0.39576453 20.571428 0.01221609 -0.010291021 0.99987245 3.9776009e-05
2.4864063 7.2087841 -0.3996374 16 0.010274687 -0.0086376993 0.99990994 4.7509635e-05
-10.8031 7.9211621 -0.23382734 19 0.91899455 0.37637225 0.11744347 0.10626575
-10.676771 7.7430949 -0.23021469 28 0.84702182 0.50633657 -0.16179384 0.086615495
-4.6046448 7.7347322 -0.15712751 21.799999 0.36010599 -0.32726568 -0.87362516 0.099119417
16.944172 7.6986732 -0.32485908 28.5 -0.44540021 -0.25113752 -0.85938853 0.074965551
-11.010339 8.220005 -0.2398397 24.75 0.86891878 0.42313617 -0.25678009 0.16415222
-4.8233509 8.3240595 -0.16792706 27 0.11601385 0.043957513 0.9922744 0.098034754
-4.7648172 8.2862711 -0.16684501 27 0.18071079 -0.16233595 -0.97004676 0.064033985
-4.2131929 8.1296463 -0.15982914 25 0.36244076 -0.22299939 -0.9049353 0.071857065
-3.9130707 8.3535051 -0.16101591 3 0.42513821 -0.20049639 -0.88264298 0.10230889
16.942062 8.3457203 -0.32965851 24.5 -0.44541156 -0.25110236 -0.85939288 0.074965164
-11.32088 8.6683731 -0.24888295 25.333334 -0.38649148 -0.64786768 -0.65642339 0.1649799
-4.9082594 8.6050901 -0.17291845 16 -0.15967183 -0.28413767 -0.94539452 0.11868657
-4.6537538 8.5022764 -0.16919141 15.333333 0.26783168 -0.12958246 -0.95471174 0.092226669
-4.2466211 8.6303043 -0.16789216 17 0.22820623 -0.067520417 -0.97126871 0.084626108
-3.9045687 8.5103989 -0.16344179 9.833333 0.3879979 -0.12878697 -0.91261792 0.10304307
16.24254 8.4589348 -0.31965825 49 -0.43084863 -0.45133042 -0.78145391 0.092691079
-11.733195 9.1768713 -0.26000595 29 -0.36441174 -0.74036914 0.564852 0.085512877
-11.509288 8.9371758 -0.25435138 21 0.59672308 0.68435889 0.41901597 0.14881466
-10.961723 9.1749382 -0.24951707 29.75 -0.038185015 -0.54460597 -0.83782232 0.12396877
-10.53645 9.0381689 -0.24230921 22.333334 0.12015095 -0.55833679 -0.82086772 0.16455102
-10.354719 9.101737 -0.24064249 18.25 0.11309605 -0.69151312 -0.71345568 0.096212894
-9.8042107 9.110837 -0.23361792 25.5 0.10886964 -0.56910795 -0.81502366 0.062421296
-9.0172672 9.1759281 -0.22456011 18.5 0.037850767 -0.12494106 -0.99144191 0.0072734817
-5.9090962 8.8703775 -0.18604267 19 -0.49898732 -0.83146948 -0.24427482 0.059489258
16.220276 9.1132927 -0.32475439 30.333334 -0.34597769 -0.32773444 -0.87914139 0.082012035
16.409466 9.0697231 -0.32726753 8 -0.34596947 -0.32778525 -0.87912571 0.082009278
17.868387 9.108263 -0.35007781 8 -0.49865803 -0.35745427 -0.7896623 0.098824069
-11.890677 9.4314337 -0.26491591 32 -0.3643705 -0.74032819 0.56493205 0.085524291
-11.235182 9.2385349 -0.25389761 21 -0.30959597 -0.57956439 -0.75382721 0.18705034
-10.273603 9.3178492 -0.24209976 18.4 0.16299601 -0.68281519 -0.71217674 0.060791034
-9.8425531 9.4384689 -0.23803584 20 -0.011922069 -0.32205901 -0.94664448 0.05097954
-9.3826523 9.3168116 -0.23080225 21 -0.046969227 -0.13183975 -0.9901576 0.031898133
-9.0578794 9.3512783 -0.22725126 22.200001 0.00027596779 -0.063589685 -0.99797601 0.007348177
-8.7613039 9.323411 -0.22332101 22 0.068781443 -0.055108093 -0.99610859 0.0036997525
-6.7821412 9.3863964 -0.20213377 10 -0.061707802 -0.90340108 -0.42433324 0.14074156
-6.1174173 9.3199701 -0.19459434 10 -0.49251932 -0.82025605 -0.29086897 0.19701363
15.456699 9.3645935 -0.31545225 24.5 -0.36335364 -0.45688933 -0.8119275 0.12019515
17.647053 9.2727747 -0.3479661 17 -0.47260487 -0.34334692 -0.81163883 0.1058569
-12.001538 9.729064 -0.2696746 30 0.70750761 0.64001054 -0.29969916 0.066190116
-11.933121 9.6735916 -0.26813877 30 0.6743409 0.67096615 -0.30833232 0.063946165
-9.2061529 9.9313059 -0.23637539 26 0.094473541 -0.16725121 0.98137754 0.034304515
-9.0768824 9.9297333 -0.23482795 19 0.094478324 -0.1672561 0.98137623 0.034304585
-8.6491928 9.8008423 -0.22818148 13.75 0.10041465 0.050846633 -0.99364561 0.036453303
-6.5214157 9.679265 -0.20372194 24.5 -0.2944231 -0.87952095 -0.373842 0.19809918
15.2744 9.8135252 -0.31690079 8 -0.40670967 -0.19058055 -0.89345747 0.097496323
-8.9604759 10.277637 -0.2380072 17.5 0.8355161 -0.54935306 -0.011140144 0.10974014
-8.6127777 10.10568 -0.23176797 31 0.23919334 0.12549764 -0.96282762 0.14041153
1.1855072 10.372885 -0.18223803 31 -0.7888245 -0.60995954 -0.075534247 0.18891543
1.344237 10.233353 -0.1801637 20.857143 -0.78877872 -0.61003125 -0.075431712 0.18891044
-8.9060011 10.691367 -0.2428956 18.6 0.42871678 -0.30121243 0.85174698 0.030872792
0.21310948 10.645235 -0.18586178 22.09091 -0.52336192 -0.85159665 -0.029587097 0.16646649
0.59777641 10.586792 -0.18509673 18.9 -0.61798787 -0.78580987 0.024371764 0.13694341
0.98153365 10.538321 -0.18475437 15 -0.76068312 -0.64016062 0.10749678 0.18590112
14.316971 10.749488 -0.31250277 33 -0.95092678 0.15554343 -0.26747808 0.17000397
15.417599 10.517182 -0.32576662 25 -0.40487087 -0.34675166 -0.846075 0.14840503
-8.8190594 10.917919 -0.24497944 20 0.43568942 -0.28439116 0.85398859 0.029352644
-8.6889744 11.025362 -0.24503179 28.4 0.49766511 -0.24250555 0.83277881 0.025066979
-8.1534967 11.078923 -0.2401102 21.5 0.81169504 0.28746837 -0.50844187 0.098951571
-0.20101744 11.005272 -0.19214147 23.181818 -0.52072901 -0.84044319 -0.14998868 0.16899596
-8.6043043 11.314959 -0.24812436 24.799999 0.95775127 0.28114063 0.060600773 0.094560288
-0.89647895 11.571558 -0.20258754 21 -0.61511892 -0.73757559 -0.27858743 0.11476779
-0.58438599 11.412693 -0.19947661 28.25 -0.48481193 -0.81243777 -0.3238861 0.13799568
-0.98013318 11.753299 -0.20587359 29.714285 -0.59140617 -0.70455295 -0.39222932 0.096882381
-0.77752745 11.61423 -0.20318091 33 -0.55233872 -0.77473134 -0.30775523 0.1352721
-6.2050242 12.337317 -0.24105263 19.666666 0.18819802 -0.14215159 0.97178936 0.05833903
-5.9739428 12.35767 -0.23958665 16 0.044417333 -0.10230657 0.99376076 0.027352864
-5.2883286 12.209679 -0.23225661 20 0.030546218 -0.045453046 0.99849933 0.036419272
-4.6733451 12.30558 -0.22976674 16.333334 -0.0056232084 0.016118396 0.99985427 0
-1.3279644 12.218828 -0.21453893 25.200001 -0.79874241 -0.48329988 -0.35837376 0.069808863
-1.1857529 12.049956 -0.21134864 34 -0.68236369 -0.62579513 -0.37783626 0.058241028
-5.9194856 12.410464 -0.24000549 6 0.044417985 -0.10230719 0.9937607 0.027352864
-5.2032433 12.42657 -0.23515373 19 0.034239501 -0.040050961 0.99861085 0.037177652
-5.0182896 12.45065 -0.23432183 14.833333 0.12238859 -0.3348687 0.9342826 0.02222836
-4.7891207 12.653996 -0.23616597 19 0.12236787 -0.33480501 0.93430805 0.022231193
-2.921073 12.694214 -0.22736995 22.666666 -0.32551479 -0.94543374 0.013973319 0.11825182
-1.6990322 12.732465 -0.22421689 24.333334 -0.68087268 -0.61438829 0.39867198 0.13297921
-1.5403109 12.543136 -0.22058678 24 -0.77846915 -0.51896316 -0.35307664 0.080147497
-4.8283706 12.893487 -0.24031964 20 0.2187141 -0.48937273 0.84420294 0.021732524
-4.634584 13.061086 -0.2419153 23 0.1936651 -0.40915737 0.89167488 0.027867725
-3.3802569 13.108005 -0.23628813 19.25 -0.27985898 -0.81040323 0.51470923 0.084442645
-3.1237025 13.051329 -0.23424619 29 -0.45331728 -0.81041098 0.37113008 0.10731006
-2.7012017 13.194285 -0.23508391 52 -0.30111209 -0.84545708 0.44105983 0.13346179
-2.1906893 13.107503 -0.23197302 30.75 -0.15280792 -0.70046127 0.69713968 0.13336736
-1.8870672 12.932963 -0.22813785 32.5 -0.29454303 -0.55280834 0.77951735 0.12342315
18.769085 12.899642 -0.39753094 28 -0.6554597 -0.52430797 0.54357499 0.17635369
-4.4577265 13.369678 -0.24600039 20 0.22721794 -0.37517428 0.89867479 0.031442981
-4.185842 13.483624 -0.24644543 21.75 0.19842726 -0.36766088 0.90854394 0.034932107
-3.6162109 13.346674 -0.24136679 27 -0.048452675 -0.86622876 0.4972927 0.090591848
-3.5572073 13.31285 -0.24052906 27 -0.19287319 -0.82988805 0.52353209 0.093683757
-2.862359 13.37402 -0.23873147 26 -0.34220272 -0.8151865 0.46729892 0.10632038
-2.6241233 13.356273 -0.23759706 37 -0.27546197 -0.67589784 0.68358088 0.092514381
5.1124454 13.569964 -0.25311807 25.666666 -0.20641585 -0.53136492 0.82161045 0.025219178
18.263662 13.220679 -0.39355177 9 -0.49419653 -0.26086164 0.8292895 0.1383999
18.541603 13.274343 -0.39803705 23 -0.65538841 -0.39245388 0.64532626 0.17879446
-3.876097 13.643348 -0.24757402 23.666666 0.080491193 -0.42212456 0.90295738 0.05081214
-3.4381757 13.830893 -0.2487666 28 -0.42998764 -0.52127159 0.73714757 0.1049519
-3.0345287 13.72744 -0.24539828 34 -0.33513215 -0.81983685 0.46427792 0.097146571
4.3690095 13.975759 -0.2555905 28.5 -0.36223575 -0.62540513 0.69112492 0.039485123
4.6029754 13.795322 -0.25385883 25.666666 -0.25530735 -0.55590582 0.79106694 0.026502956
4.9281178 13.650897 -0.25333217 26.6 -0.20635495 -0.53125799 0.82169491 0.02523423
5.3971705 13.74898 -0.2578209 34.400002 -0.19780424 -0.55634856 0.80706245 0.022879081
5.7814713 13.796602 -0.26111853 29.875 0.058501016 -0.36561781 0.9289248 0.038779963
6.2143989 13.866581 -0.26524168 27.166666 0.15267046 -0.33592072 0.92943478 0.022812149
6.4960961 13.918262 -0.26810387 9.666667 0.13670436 -0.26049545 0.9557479 0.015899621
15.897703 13.956637 -0.36925802 8 0.012699329 0.011421444 0.99985415 2.1428666e-07
16.138056 13.870896 -0.37144539 8.333333 0.0130525 0.011421871 0.99984956 1.558338e-07
17.359575 13.803493 -0.38712928 9 -0.038102977 0.0095650544 0.999228 0.018442033
4.2176099 14.182652 -0.25827816 27.666666 -0.50866133 -0.68590057 0.52038848 0.070508108
3.5864015 14.723184 -0.26450869 45 -0.45021194 -0.78085297 0.43310249 0.12426088
3.882422 14.720695 -0.26573908 28 -0.43407306 -0.72685975 0.53221762 0.1162032
4.0661225 14.592678 -0.2644214 30 -0.48922461 -0.68950927 0.53407508 0.097698726
3.0715363 15.118197 -0.26928365 34.599998 -0.6348874 -0.76573879 0.10277228 0.051497292
3.4638891 15.029717 -0.26922664 25.166666 -0.48039332 -0.85661769 0.18822436 0.1055904
3.7209034 14.842999 -0.26710328 27.333334 -0.45018178 -0.78085119 0.43313709 0.12427332
7.1966419 15.135636 -0.29253724 16 0.25878263 -0.37474501 0.89027959 0.0031511802
2.7108784 15.533425 -0.2752361 38.666668 -0.74906683 -0.62101972 0.23072359 0.046406645
2.8971925 15.480712 -0.2749103 40.75 -0.73165762 -0.62896699 0.26282614 0.064425282
3.2945368 15.250809 -0.27234483 27 -0.53059012 -0.69489753 0.48537773 0.091003232
7.4280462 15.278286 -0.29653388 16 0.26054668 -0.36688346 0.89303523 0.0024399706
7.768836 15.435961 -0.30163866 16 0.24450721 -0.34580994 0.90588731 0.0022438369
8.1450319 15.571538 -0.3067435 22.4 0.26333401 -0.35143447 0.89841473 0.01431843
2.3490856 15.88983 -0.28037292 16 -0.59432971 -0.71316922 0.37170121 0.060955286
2.5533359 15.927589 -0.28157014 35.200001 -0.68287051 -0.62879193 0.37189853 0.041585159
8.3939533 15.648102 -0.30995473 8 0.26223367 -0.34848982 0.89988238 0.015319216
8.6273603 15.816558 -0.31448069 16 0.2308784 -0.30227947 0.92483634 0.019979402
8.9929171 16.083723 -0.32164785 24.666666 0.22421351 -0.34254465 0.91235489 0.026125105
9.2954473 16.356304 -0.32838446 16 0.18003066 -0.29612449 0.93802947 0.0055732066
14.226808 16.389172 -0.37882194 9 -0.012002426 -0.015811084 -0.99980295 0
14.613824 16.376974 -0.38312685 9 -0.011967343 -0.015482508 -0.99980849 0
14.819081 16.371859 -0.38545385 9 -0.012035996 -0.015799666 -0.99980277 0
15.362005 16.329771 -0.39134401 9 0.011903703 0.01214788 0.99985534 0
15.788696 16.264988 -0.39567399 9 0.012085984 0.011930991 0.99985582 0
16.09269 16.24509 -0.39913654 9 0.012180956 0.011875777 0.99985528 0
9.5001516 16.447886 -0.3315492 16 0.13846302 -0.21783608 0.96611363 0.00014971812
9.7848911 16.477638 -0.33451027 14.25 0.13692251 -0.21469854 0.96703506 0.00037444031
10.163976 16.650545 -0.34050807 14 0.0096877124 0.013755986 0.9998585 0
13.101143 16.729279 -0.37089854 8.5 -0.010752701 -0.014109256 -0.9998427 0
13.477284 16.724619 -0.37492132 9 -0.011292583 -0.015064538 -0.99982274 0
13.835495 16.627987 -0.37757933 9 -0.011927148 -0.016002819 -0.99980074 0
14.178574 16.478048 -0.37945023 9 -0.012005148 -0.015820768 -0.99980277 0
14.459579 16.430058 -0.3820332 9 -0.011966235 -0.015476094 -0.99980861 0
15.070129 16.417082 -0.38899088 9 -0.012059206 -0.015653139 -0.99980474 0
10.557819 16.89538 -0.34775665 8 0.0098243523 0.013664941 0.99985832 0
10.859552 17.111925 -0.35376027 8 0.0098691201 0.013625544 0.99985844 0
12.669483 17.140638 -0.3720504 8.5 0.01029154 0.013414022 0.99985707 0
12.970047 17.032619 -0.37369671 9 0.010427492 0.013559672 0.99985373 0
13.309849 16.816965 -0.37435412 9 -0.011285671 -0.015048026 -0.99982303 0
11.102537 17.293659 -0.35871676 8 0.0099144997 0.013597209 0.99985838 0
11.372512 17.512129 -0.36447605 8 0.0099810427 0.013520989 0.9998588 0
11.781352 17.391869 -0.36667505 8 0.010070191 0.013441953 0.99985898 0
12.170099 17.458382 -0.37147444 8.25 0.010216736 0.013406515 0.9998579 0
12.622897 17.509588 -0.37677652 9 0.010291066 0.013412507 0.99985707 0
11.597813 17.72332 -0.36971179 8 0.0099807829 0.013526074 0.99985868 0
11.911847 17.807911 -0.37397015 8.5 0.010145243 0.013418816 0.9998585 0
11.874416 18.015352 -0.37662295 9 0.010070121 0.013442046 0.99985892 0
-1.1889112 -19.218328 0.33609846 4 0.026462557 0.097685441 -0.99486548 0.024457488
-1.2495954 -19.116285 0.33438814 7 0.026462557 0.097685441 -0.99486548 0.024457488
-11.014059 -16.67522 0.34883171 20.200001 0.68587095 0.68057799 -0.25767136 0.1825432
-10.744307 -16.703804 0.34667462 37.5 0.68587315 0.68057144 -0.2576831 0.18255115
-6.8803792 -13.353361 0.26220497 14 0.79740286 0.60232008 0.03686652 0.055202834
-7.208427 -13.074224 0.26059934 36 0.71952212 0.69216645 -0.056511078 0.053909153
-6.8591337 -13.03231 0.25706524 26 0.81054968 0.56743473 -0.14500695 0.075092234
18.809248 -12.801956 0.39714694 31 -0.21712434 -0.30892664 -0.92597049 0.028138602
-7.7630491 -12.447242 0.2560617 25.5 -0.10914185 0.99358165 -0.029723929 0.19774525
-7.3601875 -12.49438 0.25312099 29 0.63663369 0.72903186 -0.25141621 0.1069209
-7.0288291 -12.64737 0.25257123 22 0.77533704 0.61497438 -0.14373229 0.091441691
18.749886 -12.61846 0.39449421 37 -0.21712503 -0.30892754 -0.92597008 0.028138602
18.801285 -12.505738 0.39414516 40 -0.21712503 -0.30892754 -0.92597008 0.028138602
-7.8755498 -12.38598 0.25620133 18 -0.44505897 0.85565829 -0.26414296 0.12595493
-7.4781952 -12.323601 0.25161716 32.666668 0.64642799 0.64584798 -0.40621582 0.15149924
-7.1487041 -12.356892 0.24918547 40 0.64632004 0.64611977 -0.40595499 0.15129393
18.778561 -12.391587 0.39271405 54 -0.21717027 -0.30898339 -0.92594081 0.028139228
18.945496 -12.228225 0.39360413 39.75 -0.21707745 -0.30886018 -0.92600363 0.028137788
-0.64822781 -11.809708 0.20645034 22 -0.60534465 0.79569328 -0.02073855 0.15929559
-0.37399891 -11.610193 0.20276207 19 -0.60534525 0.7956928 -0.020738885 0.15929542
0.50083739 -11.672765 0.20393719 19 -0.020295484 0.96063155 0.27708319 0.15430912
18.370073 -11.676 0.37993887 5 -0.2171689 -0.30898163 -0.92594171 0.028139228
-0.49070889 -11.516706 0.20120879 30 -0.65292972 0.74189496 0.15256038 0.12294389
-0.30987307 -11.526079 0.20126115 24 -0.60547191 0.79559523 -0.02078728 0.15933479
0.60287976 -11.302143 0.19756123 12 0.36934531 0.90650439 0.20453307 0.13637361
-0.14143835 -10.92944 0.19079471 36.142857 -0.2401396 0.97055894 -0.018662238 0.22523649
0.17902119 -10.92231 0.19069 21.428572 0.023029855 0.9996984 -0.0085357083 0.20892066
0.17643969 -10.6379 0.18571106 24 0.2461233 0.96266407 0.11269972 0.17514361
15.372842 -9.6209469 0.31655174 13 -0.60137284 -0.73124897 0.32190943 0.0093362685
-2.7742198 -9.2410955 0.16841573 10 0.55002558 0.53983259 0.63722265 0.094151415
15.340514 -9.3790503 0.31385535 53.75 -0.65388107 -0.74293894 0.14311306 0.020377552
15.639947 -9.561657 0.31997243 24 -0.50283825 -0.55311656 0.66424072 0.0081840949
15.354622 -9.1677275 0.31215376 45 -0.66549295 -0.71257794 0.22215258 0.021799063
-1.3135353 -8.5557356 0.15109129 20.333334 0.44203448 0.76644909 -0.46600571 0.041458823
-1.1501808 -8.5549679 0.15067244 10.666667 0.44203475 0.76645511 -0.46599552 0.041453283
-1.4026685 -8.1057711 0.14359404 27.875 0.69711387 0.53507537 -0.47720701 0.059759013
-3.410754 -7.8336349 0.14915264 38.875 -0.12379119 0.85276473 0.50741321 0.063851051
-3.1851594 -7.6934533 0.14534363 15 -0.28160611 0.75552654 0.59150451 0.064359181
-3.344028 -7.3632445 0.14116378 11.5 -0.13568424 0.74962193 0.64780909 0.074689858
-2.9527159 -7.4719949 0.14024173 33.333332 -0.24110326 0.85187864 0.46494296 0.086579397
-2.5769069 -7.3535085 0.13602136 44.923077 -0.12867267 0.93933171 0.31796122 0.10815889
-2.1992588 -7.2884603 0.23043178 29.842106 0.99078822 -0.11600983 0.06985984 0.17807825
5.9260921 -7.5506082 0.1675431 13 -0.71065408 -0.039004151 -0.70245957 0.18392454
6.1306715 -7.4373131 0.1682412 34.5 -0.65627116 0.20268105 -0.72679335 0.19396296
-2.7089958 -7.1674495 0.22263856 23.666666 -0.28252929 0.85422957 0.4364275 0.11972136
5.9975815 -7.1476388 0.16286586 54 -0.83107048 0.12103923 -0.54283637 0.13556123
6.0314603 -6.987515 0.16112062 52 -0.54568398 0.24481826 -0.80143189 0.12777105
11.658972 -6.8787022 0.23628813 37 -0.93940485 -0.2171436 -0.26526803 0.10074458
5.3745675 -6.6607132 0.1493926 27.5 0.26961115 0.71621186 -0.64370048 0.075832829
5.8338413 -6.521112 0.15273474 40.125 0.12281412 0.74049634 -0.6607433 0.12180971
6.2850966 -6.4203706 0.15682732 36 -0.31609091 0.56831574 -0.75967336 0.13251966
6.4436421 -6.4010472 0.15853767 54 -0.31605068 0.56832737 -0.75968146 0.132524
11.500617 -6.6801662 0.23215193 43.5 -0.97047722 -0.21539143 -0.10853831 0.15887372
11.768953 -6.561574 0.2352061 45 -0.98853117 0.0051240022 -0.15092985 0.14822021
12.093578 -6.4411035 0.23916778 26 -0.88242871 0.39637724 -0.25338623 0.15553659
-4.7431502 -6.0209794 0.13379015 5 0.22233157 0.44623488 -0.86685818 0.041721042
5.271296 -6.2377362 0.14255126 29 0.0083325207 0.8449437 -0.53479034 0.030009983
5.8378725 -6.3383894 0.15042229 48 0.11214569 0.69985765 -0.70542371 0.11638924
6.1657023 -6.3484025 0.15447998 55.625 -0.0029269811 0.73829722 -0.67446911 0.11209577
6.4831066 -6.350997 0.1584155 28.5 -0.59443051 0.47977111 -0.64534652 0.11961821
11.806332 -6.1965513 0.23274529 50.5 -0.86928272 0.41346774 0.27090925 0.12911037
12.000074 -6.2841582 0.2364452 45 -0.9311834 0.35783264 0.069664374 0.16815515
12.63772 -6.0143509 0.2442988 42 -0.85057116 0.40642467 0.33368796 0.18095228
-4.5447378 -5.8920679 0.12988779 6.1999998 0.22417596 0.35896376 -0.90602988 0.05174515
-4.1401753 -5.7534094 0.12373757 5.2857141 0.12182049 0.27084613 -0.95488334 0.064070158
-3.981143 -5.8690443 0.12378992 5 0.0025416904 0.16320723 -0.98658854 0.063599259
11.750855 -5.8364077 0.22902544 45.57143 -0.95704055 -0.2725797 0.098862283 0.12939604
12.015166 -5.8187103 0.23302452 46 -0.55258262 0.45727777 0.69681388 0.19908997
12.716253 -5.9674625 0.24518886 54 -0.92075813 0.28082147 0.27082056 0.17735131
11.733356 -5.3350754 0.22498481 34.666668 -0.92552704 -0.35906503 0.12029968 0.11188024
11.463921 -4.9582953 0.21802543 51.857143 -0.93577951 -0.21783486 -0.27724487 0.098936163
0.55167729 -4.4226937 0.38993478 6 -0.86480308 0.3510212 0.35902593 0.10347237
1.6035564 -4.4958582 0.083317786 13 -0.15612228 0.48617697 -0.85980099 0.19508597
11.415174 -4.7625003 0.21590373 33.5 -0.95166427 -0.29905874 -0.069992296 0.09691339
0.32816249 -4.225832 0.073988684 23.545454 -0.80636114 0.36800265 0.46298575 0.075628906
0.4984799 -4.2078781 0.21583602 26.75 -0.8710801 0.35180533 0.34271336 0.085825495
-16.444126 -3.8963182 0.29498056 14 0.68625003 0.67217624 0.27792102 0.01261286
-1.0176935 -3.8789287 0.23094638 4.0740743 0.37468028 0.69971651 0.60828567 0.21173812
-0.75381297 -3.737057 0.22443984 2.909091 0.012119123 0.87905699 0.47656262 0.07237222
0.63019639 -3.777365 0.20298307 26 -0.88895249 0.34829661 0.29741034 0.090229906
1.0282072 -3.7000518 0.23693182 22.433332 -0.71713823 0.65291369 0.24375476 0.19469631
1.219611 -3.7810118 0.159495 32.333332 -0.32706761 0.57276636 0.75164187 0.15305185
9.5974159 -3.9655709 0.18126069 17 -0.50616592 0.46274802 -0.7277776 0.18154532
0.77612138 -3.4961834 0.31332487 30.25 -0.70634478 0.67394197 0.21651638 0.20212762
0.94154751 -3.4503331 0.26938185 27.576923 -0.70353758 0.65656734 0.27194515 0.20705317
1.4062488 -3.3779526 0.19105755 17.454546 -0.26867667 0.85693169 0.4398647 0.18062676
1.7630693 -3.2523241 0.25881809 21.75 -0.098283775 0.99515235 0.0034756649 0.18150823
2.0964313 -3.2557793 0.28437433 32.599998 -0.097851701 0.99518985 -0.0047179069 0.1673612
8.9130716 -3.4139731 0.16661231 43.666668 -0.76310033 -0.59680027 -0.24800694 0.091319092
0.67481637 -2.925873 0.052420869 10.235294 -0.72768813 0.5210889 0.44602269 0.079547562
1.0087054 -3.019793 0.14949 15.621622 -0.2417759 0.76966327 0.5909 0.14630851
1.3697759 -3.0005484 0.22495155 26.022728 -0.27495196 0.87988627 0.3875584 0.2096474
1.7979054 -2.9808214 0.192937 37.042858 0.16030358 0.97274369 0.16754831 0.22066285
2.1885602 -3.0026085 0.20685905 31.692308 0.53788912 0.83072817 -0.14340882 0.10181741
2.5427327 -3.0731318 0.30058411 22.294117 0.32070628 0.94503158 -0.063740402 0.096347332
8.7345285 -2.9508598 0.16093113 61.42857 -0.88361335 -0.20521119 -0.42085141 0.072012976
8.9192867 -3.1690466 0.16522193 67 -0.81287456 -0.48848188 -0.31720704 0.084331773
-17.995714 -2.5195267 0.31718004 18 0.6630255 0.6862343 0.29913148 0.011158687
1.0402685 -2.7371268 0.084891215 11.4 -0.65195596 0.54222023 0.53004783 0.16957512
1.323352 -2.6531973 0.10360478 24.066668 -0.016160663 0.77876508 0.62710756 0.19537458
1.8055376 -2.7461979 0.17032252 30.666666 0.47427538 0.87939209 0.041621555 0.1340203
2.1581807 -2.7623451 0.061188139 22 0.74600393 0.65878743 0.097351827 0.13757569
8.4936199 -2.5909166 0.15500881 50.099998 -0.84915113 -0.054243095 -0.52535701 0.084199287
1.2805417 -2.3565173 0.093167618 15.25 -0.54643995 0.56281304 0.62019742 0.11110054
8.3298273 -2.304208 0.1508586 48.666668 -0.89481068 0.29737172 -0.33299232 0.091810726
8.4857006 -2.2844377 0.15339792 31.75 -0.86896276 0.32988581 -0.36888894 0.11979106
8.9085693 -2.232754 0.16031781 22 -0.69723952 0.45216933 -0.5562374 0.15628685
9.4247665 -2.1370785 0.16868913 24.833334 -0.80655485 -0.48013026 0.34488285 0.19493206
17.225267 -2.0204561 0.30272943 6 -0.61598438 -0.75783199 -0.21506718 0.091181345
17.823925 -2.216928 0.31351504 29 -0.53689378 -0.82611305 -0.17112094 0.078121565
-0.41408381 -1.6644261 0.24859762 20.1 0.3765111 0.58683443 -0.71684361 0.11460871
-0.3189916 -1.6390126 0.22754398 23.362068 0.16596714 0.61981893 -0.76699382 0.13126104
9.0766525 -1.6784732 0.16112062 39 -0.97712165 0.060400151 0.2039239 0.21338961
