# .PCD v0.7 - Point Cloud Data file format
VERSION 0.7
FIELDS x y z intensity normal_x normal_y normal_z curvature
SIZE 4 4 4 4 4 4 4 4
TYPE F F F F F F F F
COUNT 1 1 1 1 1 1 1 1
WIDTH 578
HEIGHT 1
VIEWPOINT 0 0 0 1 0 0 0
POINTS 578
DATA ascii
9.0561543 18.25161 0.35564515 27 -0.64907461 -0.68745172 0.32574883 0.11484028
9.6236572 18.345924 0.36161387 32 -0.08680734 -0.10531367 -0.99064302 0.2055001
10.109711 18.114655 0.36210251 26.5 -0.79937416 -0.47737089 0.36485332 0.21876024
-5.6055198 18.71977 0.34108981 40 -0.80966878 -0.5309028 0.25015727 0.055495877
-5.3032207 18.772293 0.34049642 35 -0.80965686 -0.53091985 0.25015968 0.055489734
2.7893739 18.465668 0.32597607 14 -0.95239872 -0.28751975 0.10133695 0.04037004
8.6879444 18.462883 0.35616869 42.5 -0.74312234 -0.66017097 0.10928629 0.15167995
8.9485884 18.51123 0.35889131 36 -0.62859255 -0.62821096 0.45850009 0.12230959
9.4544268 18.563219 0.36362961 29.25 -0.015202402 -0.023180863 -0.99961561 0.20617637
9.7721958 18.631428 0.36723357 22 -0.086844914 -0.10535424 -0.99063534 0.20549969
-5.7261395 18.894367 0.34461522 26 -0.78004783 -0.54075158 0.31482235 0.045268048
-5.4225049 18.836035 0.34213698 33 -0.80966878 -0.5309028 0.25015727 0.055495877
8.7755766 18.905361 0.36381286 34 -0.7176562 -0.69511592 0.042228952 0.15106902
8.331213 19.428843 0.36899623 24.5 -0.52345276 -0.85194832 -0.013460177 0.16882002
8.5650024 19.370373 0.36969432 36.25 -0.52331609 -0.85203278 -0.013427578 0.16872479
10.402106 19.343073 0.38335958 22 -0.77578014 -0.59539878 0.2089629 0.1920023
-18.969181 -19.002316 0.46866694 43 0.5178557 0.78987753 0.32851022 0.1108075
-18.628229 -19.182041 0.4667297 52 0.38544315 0.89496869 0.22464336 0.082952194
-18.208883 -18.878256 0.457829 35 0.35402998 0.88520336 0.3017911 0.10119184
-17.831284 -18.981384 0.45459157 38.25 0.5526489 0.80036968 0.23235196 0.094032064
-17.552444 -18.849066 0.44957402 30 0.55286479 0.80024415 0.23227082 0.093997508
19.672161 -18.267704 0.46859711 18 -0.37845549 -0.13885368 -0.91514534 0.036459334
-7.649354 -12.419271 0.76441908 18 0.33048975 0.898601 0.28860497 0.13475567
-7.5694947 -12.533457 0.76734984 23 -0.80318135 0.57790959 0.14463827 0.20131132
-8.0664873 -12.219543 0.76734984 31 0.73641819 0.61412692 0.28378928 0.12158167
-7.7545662 -12.130579 0.75455892 30.4 0.33057624 0.89858294 0.28856194 0.1347423
-7.527844 -12.31808 0.75656861 34 0.33069399 0.89855117 0.28852591 0.13474301
-8.4592161 -11.982825 0.76871061 21 0.69514924 0.6404897 0.32640541 0.09952341
-8.2821302 -11.863091 0.75824344 25 0.54281735 0.76515716 0.34624255 0.19891787
-7.8960767 -11.931262 0.74983478 30.666666 0.80650318 0.58140981 0.10730999 0.16636187
-7.4689579 -11.89287 0.73600066 19.5 0.77655447 0.61616105 -0.13156238 0.1523888
-1.7006366 -11.750261 0.62222224 17.5 -0.57960606 0.68609816 0.43968859 0.15628038
-1.40722 -11.655589 0.61528778 27.25 -0.56591433 0.67259806 0.47681531 0.16268229
-8.4027033 -11.472435 0.74526411 45 0.080989659 0.99657446 -0.01673617 0.17102219
-8.2511044 -11.474356 0.74068475 36 0.27376571 0.95350099 0.12604807 0.18978469
-7.7135243 -11.296299 0.7168718 29.25 0.57865059 0.81243145 -0.071544737 0.1682677
-1.510625 -11.517303 0.60877186 29.666666 -0.56594127 0.67252612 0.4768846 0.16268951
-1.039363 -11.311744 0.59532154 21 -0.44849649 0.71947682 0.53028667 0.16922146
-0.42152759 -11.280636 0.59160572 15 0.28758588 0.79301786 0.5370447 0.12837899
-0.15651207 -11.381819 0.59657013 21.857143 -0.03252399 0.85412592 0.51904827 0.13963047
0.18496341 -11.302142 0.59244311 20 -0.77829731 0.60728711 0.15954858 0.27005517
-1.030655 -10.977742 0.57787877 22 -0.56766266 0.73810256 0.3646419 0.094941169
-0.62161171 -10.957773 0.57522452 25 0.49428338 0.8124072 0.30931932 0.11030836
-0.32678035 -11.125163 0.58330178 30.666666 0.24885589 0.78979164 0.56062454 0.14041735
0.2276137 -11.031799 0.57829934 36.625 0.17531662 0.76717669 0.6170122 0.1539682
0.42669731 -10.908676 0.5721367 28 0.18262708 0.77006143 0.61127132 0.12036601
-0.81474292 -10.76039 0.5655424 19 0.16167521 0.91568118 0.36795253 0.14139712
8.3346939 -9.7852268 0.67365539 37.875 -0.47085765 0.37385637 0.79907727 0.047596201
8.5273247 -9.665329 0.67550027 24.5 -0.52339137 0.34510991 0.77907676 0.044541243
8.891201 -9.8516884 0.69549257 24.5 -0.48671097 0.39384067 0.77974486 0.042820387
-1.8271023 -8.2401838 0.44234353 11.6 0.61441165 0.55280888 -0.56293929 0.083879277
11.271873 -8.0460873 0.72579515 18 -0.99044812 -0.11406315 -0.077474482 0.07632339
-4.4298077 -7.7192531 0.77864933 13 -0.66881835 0.72007972 0.18484376 0.080754861
-4.2683368 -7.7350907 0.77301329 25.5 -0.6688875 0.72001827 0.1848326 0.080753103
-3.938169 -7.6398783 0.75197971 27 -0.50906098 0.8377918 0.19738744 0.074668042
11.091174 -7.7435198 0.70892203 57.200001 -0.97251976 0.1881569 0.13712154 0.096557871
11.38113 -7.6533961 0.71878213 54 -0.90113336 0.34855494 0.2578142 0.068129383
13.158124 -7.6951489 0.79885614 6 -0.53829253 -0.78865421 0.29709545 0.16685641
-4.1508045 -7.5377479 0.54347843 26.461538 -0.57368314 0.80283386 0.16231303 0.054897483
-3.821393 -7.4561453 0.57512993 25 -0.42454734 0.88788301 0.17726642 0.044319119
-3.3862517 -7.3780365 0.49569726 23.125 -0.19813874 0.96751887 0.15699786 0.067564905
-3.0779197 -7.3678083 0.41847834 16.5 0.20874539 0.96025759 -0.18528575 0.12389215
-2.6520159 -7.3090014 0.47446418 18.5 0.34216338 0.91859257 -0.19776721 0.15221685
11.073358 -7.5593982 0.70266259 54 -0.92426759 0.28397444 0.25512338 0.067666031
11.370616 -7.3595471 0.70985508 47.285713 -0.87646908 0.41625354 0.24194004 0.075078122
-3.3512766 -7.0622907 0.57017148 19.647058 -0.10924374 0.99351639 0.031479631 0.070425391
-3.0167854 -7.0977693 0.59710115 22.357143 0.037520874 0.99602753 -0.080754369 0.060528662
-2.6089435 -6.9895267 0.65279651 25.133333 -0.067468055 0.99758399 0.016559275 0.10014498
5.3216939 -6.828649 0.45371786 22 0.30279505 0.84756148 -0.43583795 0.033740222
11.368784 -7.1092014 0.70271492 51 -0.76945293 0.60048282 0.21762921 0.080039509
11.674102 -7.0479817 0.71468496 50.142857 -0.60442603 0.78839165 0.11448939 0.11868794
12.050463 -6.9096947 0.72799325 36 -0.93185425 0.22650287 0.28345022 0.1497556
4.990799 -6.595829 0.52995318 21.916666 0.45276028 0.82324231 -0.342462 0.025164966
5.3843179 -6.6577082 0.58627039 29 0.33991712 0.87631774 -0.3413555 0.031130992
4.779017 -6.36274 0.69620007 23 0.33990991 0.87632245 -0.34135064 0.031110292
4.9441948 -6.3694534 0.70543855 25 0.33990863 0.87632066 -0.3413564 0.031123014
10.978544 -6.1168013 0.65864807 45 -0.91518253 -0.37352273 -0.15139945 0.070179656
11.27671 -6.2816925 0.67649466 44 -0.86615312 -0.48950365 -0.10082128 0.059821181
10.768028 -5.8052607 0.64111555 28 -0.8386665 -0.54113746 -0.061715417 0.11161896
10.951247 -5.9534678 0.65325743 49 -0.84178716 -0.52814806 -0.11159761 0.10097457
0.35633591 -4.458035 0.70833534 26 -0.88506091 0.22327384 0.40843108 0.20560743
0.46504617 -4.5918803 0.7310183 16.25 0.84351784 0.53130662 -0.078682311 0.26636136
1.0555992 -4.5380421 0.4076274 18 -0.1713209 0.14834 -0.97398376 0.2044099
8.7996702 -4.7045093 0.52294093 27 -0.94823009 -0.30013505 -0.10382006 0.076419987
8.8964357 -4.5968056 0.52482504 30.333334 -0.91556996 -0.38677409 -0.11017045 0.072035678
9.3100042 -4.6478844 0.54534072 30 -0.93407875 0.17180225 -0.31301886 0.17876127
0.27594063 -4.2821679 0.55907816 26 -0.97154063 -0.024095695 0.23564437 0.18155842
0.47000286 -4.1453023 0.56769967 31.636364 -0.67956007 0.65720707 0.32600164 0.23450796
8.5821743 -4.142417 0.49946451 36.42857 -0.90762347 -0.30286667 -0.29067421 0.058818243
8.9102364 -4.2204261 0.51673913 34.5 -0.84609455 -0.43716756 -0.30497307 0.079983093
-1.2681849 -3.8165798 0.65148956 21.619047 0.25024313 0.82860148 0.50079733 0.06559357
-1.1253812 -3.7583368 0.6265415 32.551723 0.25571764 0.84205002 0.4749319 0.068143331
0.58463216 -3.7754211 0.61762273 24.022728 -0.81278187 0.56622028 0.1370414 0.1780622
0.99560571 -3.8103414 0.71895504 26.888889 -0.15281942 0.37471724 -0.91445792 0.22877511
1.3537142 -3.7593677 0.67732638 17.799999 -0.49979582 0.26566508 0.8243944 0.21865036
1.6115643 -3.7691417 0.5033204 12 -0.42182386 0.77750164 0.46642876 0.12712805
8.1975107 -3.7473788 0.66129357 30.5 -0.97600687 -0.13696755 -0.16926447 0.07503175
8.5820875 -3.6424713 0.48860854 28 -0.95063847 -0.19936769 -0.23777954 0.10814827
8.8329897 -3.9956741 0.5080775 29 -0.90470618 -0.30367067 -0.29881561 0.060143627
0.65726477 -3.3666289 0.57401258 34.844826 -0.71046615 0.58556265 0.39032581 0.14546664
0.97782886 -3.3139427 0.49289471 21.416666 -0.59381354 0.75278932 0.28406662 0.22662646
1.3344036 -3.3879273 0.62108403 14.708333 -0.290878 0.52394003 0.80054784 0.19713734
1.8811984 -3.2534673 0.67548466 19.833334 -0.05360939 0.93560749 0.34894782 0.1592861
2.2499111 -3.2781212 0.63078266 32.958332 -0.15013875 0.97367287 0.17152101 0.18499698
2.442091 -3.2723513 0.79370183 39.166668 0.30976674 0.93401289 0.17794494 0.13870141
8.2215719 -3.418139 0.73049635 28.615385 -0.98397297 0.16691677 0.062737577 0.095980741
8.5137777 -3.3887718 0.48026091 28.75 -0.99201375 -0.039509404 -0.11978194 0.14457518
0.79761964 -2.9458861 0.48338255 26 -0.49769309 0.70248252 0.50874341 0.10918003
0.97159398 -3.0567081 0.50125951 22.264706 -0.36772218 0.76697266 0.52586436 0.13953619
1.4189157 -2.9823759 0.57063448 24.811111 -0.0042695235 0.9531824 0.3023659 0.14624694
1.7782897 -3.0047698 0.57881683 29.907408 0.056856778 0.96596181 0.25235891 0.12706794
2.194576 -3.160656 0.56066579 40.18182 0.37616858 0.92622024 0.024764296 0.10764177
2.4229267 -3.1828496 0.63355964 10 0.12252907 0.98376232 0.13114232 0.14180396
8.2486563 -3.1268914 0.66751873 37 -0.8596881 0.42914739 0.27707198 0.12880562
8.5751581 -2.9994147 0.61106032 26.714285 -0.58806401 0.75517166 0.28964919 0.14559358
8.8712521 -2.9996929 0.49080664 32.42857 -0.56163454 0.82060045 0.10574239 0.15381007
9.2851515 -3.1175842 0.51331109 20 -0.16876815 0.98177361 -0.087395377 0.14386986
1.4742692 -2.7814217 0.53256434 34.299999 0.18644978 0.90447628 0.38361341 0.15575315
8.7416525 -2.7679784 0.48054877 46 -0.43472019 0.84404725 0.31401044 0.17542772
9.0001564 -2.6284873 0.4914172 41.75 -0.79847109 0.57816279 0.16784421 0.17176206
8.9528465 -2.28952 0.48431697 31.833334 -0.77190286 0.56540203 0.29066572 0.11302058
9.4488983 -2.2116997 0.50861585 26.428572 -0.9316721 -0.054077931 0.35925305 0.18977071
9.7341919 -2.1359324 0.52231288 25.5 -0.90746516 -0.39748442 0.13606334 0.1456182
9.6163731 -1.9722091 0.51446253 18 -0.95584464 -0.11369602 0.27098766 0.14498964
14.968114 -1.7834195 0.79001129 61.5 -0.59832245 -0.78886932 -0.14034022 0.064716466
14.664535 -1.3841466 0.77197033 66.714287 -0.72208381 -0.69058359 -0.041101437 0.08850278
14.573278 -0.9919399 0.7655443 55.75 -0.64902592 -0.76069164 -0.010652498 0.066376954
-12.044858 -0.61619771 0.63209623 24 0.48036623 -0.85064453 0.21366353 0.11004751
-11.92606 -0.42480528 0.62541473 27 0.48044339 -0.85060728 0.21363831 0.11004366
13.403277 -0.47071123 0.70287198 40.666668 -0.87668461 -0.46718439 0.11472963 0.10162707
14.62101 -0.74321282 0.76724517 43 -0.69237649 -0.69481295 0.19455025 0.091429502
-12.141344 -0.19726264 0.63640529 36 0.70561785 -0.65166879 0.27826467 0.13920079
-11.962495 -0.1961827 0.6270895 38 0.75788403 -0.63944471 0.12931466 0.12655909
13.413479 -0.18984421 0.70306969 44.777779 -0.92988753 -0.36624208 0.03429205 0.10202947
-11.77306 0.19652377 0.61711073 35 0.86309552 -0.46949387 0.18612267 0.10700372
13.335693 0.2291254 0.69901407 48.142857 -0.87484318 -0.48213241 -0.04687991 0.10309543
13.679152 0.045363348 0.71689802 31 -0.88873833 -0.44752562 0.099322453 0.11480255
-11.739264 0.57743281 0.61599427 32.599998 0.82479054 -0.52621645 0.20692235 0.12018091
-11.507332 0.6121853 0.60397446 32.166668 0.83752483 -0.50856775 0.19977751 0.090183444
12.275482 0.68198842 0.64432549 41.666668 -0.82056433 -0.4437584 0.36021194 0.1126264
12.656733 0.70382833 0.66435266 35.5 -0.5866912 -0.62489665 0.5150705 0.07945668
13.004865 0.54031533 0.68214697 67 -0.49334529 -0.86969912 0.015293756 0.096696898
13.339479 0.43783191 0.6994701 32.5 -0.8293196 -0.54296446 -0.1319795 0.10955402
-11.695823 0.92724484 0.61487776 34 0.88691819 -0.43092903 0.16636178 0.1932795
-11.336957 1.0182467 0.59656018 38.5 0.9463132 -0.32097834 0.038266353 0.18865854
-11.176249 1.1628397 0.58888423 35 0.8617003 0.45029861 0.23388833 0.14308137
12.293592 0.87824941 0.64593041 41.5 -0.87117416 -0.3264198 0.36675027 0.10812853
12.586153 1.0695484 0.66200799 42.799999 -0.86616182 -0.27837726 0.41505402 0.11182931
12.872272 0.98583865 0.67659926 27 -0.58270478 -0.70827723 0.39849547 0.12111388
-12.198605 1.4810393 0.64400446 38.400002 0.91986704 0.3787269 -0.10203263 0.069939978
-11.205791 1.2430712 0.590873 25 0.88109314 0.4017823 0.24949126 0.13672036
-11.186022 1.2033406 0.58961695 27 0.86169863 0.45029989 0.2338921 0.14308076
12.579707 1.4047053 0.66339898 47 -0.87142307 0.083542623 0.48336583 0.050629094
-12.239793 1.7701806 0.64815474 26.625 0.93386322 0.34117556 -0.107232 0.066941775
12.324932 1.7363768 0.65231544 49.25 -0.83009136 0.00055300357 0.55762714 0.040589631
12.508047 1.7841567 0.66218072 36 -0.82956618 -0.058980115 0.55528486 0.039813947
-13.502872 2.3106322 0.71794468 26.333334 0.94663376 -0.28838253 0.14394419 0.098673195
12.629289 2.1947341 0.67182624 47.299999 -0.73855847 -0.19514571 0.64532906 0.069825441
-13.473793 2.5109317 0.71831107 31 0.89494121 -0.37612501 0.24002147 0.13739341
-13.140647 2.6554081 0.70261776 33.142857 0.92807925 -0.36149839 0.089374803 0.11698904
-8.2144728 2.4332366 0.74953938 9 0.59023559 0.8066529 0.030546751 0.12100904
-7.7824373 2.6911495 0.6613816 20 0.50854653 -0.76429152 -0.39653361 0.15736942
11.410241 2.7878489 0.61557555 27 -0.60746604 -0.76806533 -0.20263417 0.073003113
11.77707 2.7477121 0.63378853 39.666668 -0.63349777 -0.76839751 0.090806372 0.10871979
12.269786 2.600832 0.65733969 31.285715 -0.70206279 -0.70334113 0.11144072 0.13511139
12.498859 2.4384661 0.6673882 41 -0.78530413 -0.30447772 0.53906465 0.11817401
-13.338618 3.0561843 0.71717012 32.799999 0.96782541 -0.23035099 0.10125442 0.13121697
-13.167634 2.8734162 0.70632613 25 0.93096423 -0.36510754 -0.0014440558 0.12516443
-8.4139671 3.1709831 0.47123301 4 -0.22281885 -0.84805125 -0.48079175 0.22576337
-8.152092 3.1472266 0.65971023 10 0.71957237 -0.56726032 -0.40053886 0.18711714
-7.802794 2.9184055 0.72891253 15 0.69485563 -0.64677244 -0.31442174 0.1895247
11.531129 3.0319047 0.62487644 38.285713 -0.58999807 -0.78959507 -0.16864747 0.075794592
11.665281 2.8502707 0.62933993 26 -0.53139067 -0.83404911 -0.14827697 0.079205081
-13.657328 3.3014367 0.73636699 30 0.98683143 -0.059667323 0.15034431 0.17819157
-13.412346 3.3646665 0.72469604 37.5 0.98684025 -0.059913542 0.15018916 0.17807175
-13.040702 3.3808846 0.7060383 31.75 0.99865848 0.047658738 -0.020246271 0.10794499
-8.3133783 3.2814598 0.46840689 18.5 0.86338872 -0.25899816 -0.43298942 0.11982288
-7.6916585 3.5932183 0.74274123 22 0.10575631 -0.250936 -0.96220928 0.15921205
-7.3791537 3.5039437 0.71470618 23 0.35699704 0.093991764 0.92936462 0.16189767
11.004163 3.38889 0.60345691 34.777779 -0.82480007 -0.20596728 -0.52657598 0.09360373
11.404447 3.254317 0.62154192 40.666668 -0.84897774 -0.34971246 -0.39615396 0.10941452
11.638408 3.2341816 0.63305581 31 -0.81807429 -0.52671361 -0.23092699 0.1211075
-7.7056236 3.8063636 0.6747402 15 0.06373129 -0.87777394 -0.4748171 0.20454913
-7.3646927 3.6455736 0.71894777 11.5 0.4196603 0.29853195 0.85718369 0.20193122
-6.9959235 3.8355446 0.69815242 17.799999 0.70145136 -0.69209588 0.17020331 0.16246021
11.049573 3.7786903 0.61203766 32.400002 -0.95449185 -0.0038978306 -0.29821149 0.083593965
11.522827 3.9259593 0.63797534 26 -0.87677586 0.247857 -0.41210541 0.1511889
-8.0451107 4.1586614 0.79233283 29.5 -0.27491495 -0.93008029 0.24366446 0.13944039
-7.7527347 4.1873236 0.60518986 25 0.59828728 -0.77613091 -0.19918101 0.2371641
-7.3249516 4.1926775 0.54161841 29.083334 0.70777565 -0.69596243 -0.12120186 0.18797174
-7.0003037 4.2806602 0.55967271 34.400002 0.80531085 -0.56738919 0.17188358 0.15929034
-6.5557365 4.367178 0.41282606 20 0.9215678 -0.38413706 0.056138694 0.132467
11.075739 4.0115461 0.61735499 25 -0.89677954 0.19180709 -0.3987436 0.085404836
11.303744 4.2051268 0.63211375 19.5 -0.88543606 0.40927154 -0.22022693 0.14964382
11.702817 4.3778343 0.65482759 18 -0.89563334 0.28019732 -0.34544235 0.14944792
-12.921581 4.4922962 0.7169503 36.5 0.82281888 -0.37409478 -0.42781088 0.099877037
-12.555387 4.5927606 0.70067382 28.4 0.89312351 -0.23827654 -0.38151628 0.1122813
-12.31448 4.5454597 0.68793875 28.666666 0.89312303 -0.23826513 -0.38152453 0.11228146
-8.7847271 4.4432597 0.51592791 4 0.31759006 -0.75174713 0.57793838 0.16246571
-6.9301014 4.4716969 0.57710707 21.75 0.91171783 -0.40684104 0.057017386 0.16769381
-6.6787672 4.5574908 0.47517923 21.454546 0.90400261 -0.40659857 0.13212439 0.14450882
11.69936 4.5409751 0.65771645 31.4 -0.80062377 0.5212124 -0.29553214 0.14130349
-7.4038172 5.0493131 0.78405309 29.25 0.98519248 -0.15649764 0.070030525 0.16965251
-6.9504304 5.0241442 0.7503587 25.700001 0.91144603 -0.40029281 0.095035307 0.22286564
-6.6252966 4.9589648 0.43375239 23.384615 0.9524942 -0.20424938 -0.22591361 0.15161888
-6.9678345 5.4028492 0.70996159 32.900002 -0.16852558 -0.98026532 0.10333931 0.15897509
-6.6863375 5.395505 0.60255969 25.799999 0.98522389 -0.16124067 -0.057753291 0.1917977
-6.361834 5.4797707 0.44004074 2 0.96517491 0.20301326 -0.16499421 0.12817329
-6.9064598 5.737184 0.65818733 31.799999 0.82158971 0.57007402 0.0024363862 0.17682527
-7.1434479 6.1313524 0.49337113 11.5 0.79090035 0.61174202 -0.015755918 0.17248765
-6.7451582 6.1225462 0.47740865 11 0.78466964 0.60666108 -0.12749851 0.12024194
-8.0168543 7.0553832 0.55968076 11 0.8259486 0.56311774 -0.026595466 0.071107596
-4.3916245 7.0389953 0.43480718 14 0.012025794 -0.96963549 -0.24425884 0.16566296
-4.6042423 7.4480596 0.67181712 23 0.94026875 0.28623635 -0.18429165 0.18117356
-4.251853 7.4354892 0.58306456 20.111111 -0.29654858 -0.93736154 -0.18279043 0.23490331
-3.4649148 7.4170227 0.51855111 29 0.33339944 -0.79546106 -0.50604969 0.097794347
-8.522666 7.7357888 0.60322428 30.75 -0.61542219 -0.77729875 0.1306221 0.074087143
-8.3968058 7.8082571 0.60092151 27 -0.61546069 -0.77726942 0.13061534 0.074090324
-4.5377584 7.7033882 0.46858132 20.666666 0.77905673 -0.50269973 0.37465125 0.18167898
-4.1553111 7.7552843 0.64726728 24.466667 0.29684889 -0.95276684 0.064156301 0.20603439
-3.8578761 7.8324933 0.65314013 30.90909 -0.18568929 -0.972817 -0.13837171 0.21144199
-3.3662972 7.8062367 0.56094444 29.153847 0.41455519 -0.85073847 -0.32309139 0.14612135
-3.0551157 7.8418112 0.53038347 26.25 0.59365731 -0.68062484 -0.42932603 0.10097127
-4.5715637 8.1231594 0.48850387 25 0.94897044 -0.098903231 0.29945487 0.15062548
-4.3182087 8.1664104 0.64417541 35 0.43390676 -0.89980197 -0.045621708 0.24578081
-3.6044488 8.0240011 0.76958525 27 0.44003627 -0.88387632 -0.15852648 0.18383387
-3.4848061 8.0540438 0.7068373 23.4 0.63462883 -0.75189048 -0.17862499 0.19518545
-3.0083482 8.2425013 0.73326951 16.777779 0.63771081 -0.65651417 -0.40288234 0.19367312
-2.6738751 8.242487 0.72013557 30.375 0.96675628 -0.19475737 -0.16568644 0.10726573
-2.9758637 8.670476 0.57121992 26 0.83612084 -0.3678304 -0.40694302 0.11405384
-2.5847206 8.4918747 0.7766012 28 0.97011453 -0.11903046 -0.21144658 0.095900148
-3.0996475 8.8859844 0.49321413 25 0.89823049 -0.1104141 -0.42543009 0.092497364
-9.8694077 9.4408522 0.7157914 25.428572 0.91336012 0.3859908 -0.12955457 0.064883411
-5.1253467 9.977129 0.58783752 15 -0.39321902 -0.52212626 -0.75681102 0.13472836
1.0490812 10.708219 0.56389755 28.142857 -0.22731662 -0.9378261 0.26231551 0.15465988
1.4005089 10.756687 0.56857789 20 -0.3715353 -0.77714133 0.50794971 0.14464544
0.3975051 11.159598 0.58522069 52 -0.50575763 -0.72120583 -0.47336173 0.10507923
0.62045485 11.001946 0.57752734 34.833332 -0.47709903 -0.85352618 -0.20945036 0.14532857
1.4386861 10.912369 0.57686007 38.25 0.40822238 -0.89974505 -0.15431599 0.2242333
1.6917679 11.17314 0.59223378 37 0.8470161 -0.47137421 -0.24570338 0.14342318
-0.14859544 11.484013 0.6019333 21.333334 -0.56839108 -0.61858463 -0.54247999 0.057103422
0.34487349 11.356155 0.59542626 30 -0.50218827 -0.78020835 -0.3729367 0.082892835
0.59137678 11.362837 0.59634209 27.25 -0.43869764 -0.78930545 -0.42958274 0.14939743
0.88367099 11.405407 0.59952587 34.666668 0.040176049 -0.90641034 -0.42048308 0.15107645
1.789312 11.28328 0.59872341 23.666666 0.82084471 -0.51796961 -0.24066889 0.13840696
-0.53406215 11.912262 0.62493324 27.6 -0.88290089 -0.28739896 -0.37133253 0.15124549
-0.23948713 11.763202 0.61663973 37.333332 -0.61435825 -0.72374147 -0.31426468 0.10743208
0.15761268 11.789209 0.6179232 30.571428 -0.61382908 -0.64828837 -0.45048416 0.1464994
-7.5275512 12.255017 0.75374252 6 -0.66029537 -0.73014218 0.17579108 0.14276358
-0.23790526 12.061099 0.63221842 18 -0.83668184 -0.35584921 -0.41633499 0.15315007
2.0327888 12.018574 0.63881272 15 0.91302097 -0.40281904 -0.064260811 0.082981311
-8.2897816 12.728695 0.79608232 38.5 -0.47407216 -0.76222384 0.44076106 0.11390609
0.14533399 12.615849 0.66121256 22 -0.86284393 -0.39815363 -0.31140646 0.099029653
-8.1557045 12.821413 0.79637015 25.5 -0.47416002 -0.76220483 0.44069958 0.11389291
-1.2107226 13.00183 0.68434501 19 0.92434573 -0.0073569743 0.38148502 0.15454112
-1.0330541 13.063492 0.68678236 31.428572 0.95703185 -0.27081087 0.1036894 0.15430076
-0.84878838 13.416709 0.70454669 29.5 0.91792637 -0.27390087 0.28703558 0.21654239
-1.650476 13.820677 0.72945863 10.5 -0.5611282 -0.81838316 -0.12403288 0.1369773
-1.4772804 13.79713 0.72721863 27.6 -0.16064809 -0.87905371 0.44883952 0.15224545
-0.75071895 13.793549 0.72396338 28.5 0.56098455 -0.78094393 0.27463242 0.12184954
4.8496499 14.377256 0.7951926 32 -0.28819454 -0.95339197 0.089373313 0.13255329
-3.0085926 14.56028 0.77920401 28.75 -0.41851684 -0.90356183 0.091758996 0.18081143
4.952754 14.432919 0.79969347 32 -0.089501694 -0.98252177 0.16321868 0.13553286
-2.9942667 14.891905 0.79608232 24 -0.18404597 -0.9625442 0.19908701 0.13755812
-2.6283548 14.880664 0.79194778 33 0.127813 -0.98663378 0.10108253 0.13369709
-2.0463381 15.115177 0.79937947 29 0.46815974 -0.86824089 0.16426903 0.24694361
-17.263588 19.355806 0.45271543 42 0.18766382 0.087881632 -0.97829396 0.047249112
-16.948421 19.545103 0.45156357 38 0.18766382 0.087881632 -0.97829396 0.047249112
-16.980822 19.671881 0.45361128 44 0.18765748 0.087880142 -0.97829527 0.047248885
-2.1106977 -18.996872 1.0017103 7 0.071219608 0.061614659 -0.99555582 0.010962622
-13.623275 -15.788288 1.0928795 41 0.17399292 0.69754392 0.69509637 0.096843064
-13.586272 -15.856979 1.094345 71 0.17399988 0.69752306 0.69511551 0.096851327
-12.049059 -15.634731 1.0344726 24 0.51407969 0.6717853 0.53331667 0.11932126
-11.917675 -15.803904 1.0373615 32.799999 0.51421672 0.67166603 0.53333467 0.11932538
-13.642498 -15.583701 1.0854479 45 0.17403179 0.69745904 0.69517183 0.096880175
-13.527741 -15.561888 1.0806329 45 0.17402659 0.69746041 0.69517177 0.096880853
-13.015827 -15.293549 1.0524762 29 0.25319907 0.76659441 0.5901044 0.1142495
-12.638432 -15.28073 1.0392526 31.333334 0.21821186 0.9196108 0.32664913 0.111839
-12.15196 -15.390823 1.0277317 37 0.21815372 0.91964912 0.32657984 0.1118111
-12.727079 -15.116633 1.035624 36.5 0.21813047 0.91963863 0.32662493 0.1118444
-12.324307 -15.159554 1.0239007 43.5 0.21817246 0.91963971 0.32659385 0.11181054
-1.0100064 -11.661633 1.02408 24 -0.34588069 0.6695894 0.65727967 0.10583361
-0.61787581 -11.685627 1.0238475 31 0.1003498 0.88889831 0.44697845 0.16017433
-0.23792759 -11.72167 1.0258231 22.5 0.28056657 0.86663955 0.41257516 0.22481607
0.073619284 -11.684361 1.0222788 28 -0.74026006 0.53387266 -0.40865022 0.21844456
-0.88112825 -11.409547 1.0011871 30 -0.27774772 0.62158704 0.73245192 0.11424363
-0.59585088 -11.530376 1.010164 35.166668 0.030178839 0.80152535 0.59719872 0.14620523
-0.20891446 -11.443438 1.0013759 29.5 0.16863914 0.85027081 0.49859852 0.14272971
0.045109205 -11.236986 0.98311675 28 -0.10873162 0.89808029 0.42617998 0.13380092
-1.0155869 -11.003531 0.96680117 27 -0.26777375 0.66216487 0.69988203 0.11559529
-0.7325843 -11.147283 0.97736448 31 -0.10635097 0.70058203 0.70560205 0.094727449
8.9179211 -10.042494 1.1750337 38.5 -0.43493736 0.53299737 0.72577083 0.032046486
8.3018513 -9.8404446 1.1264008 31.200001 -0.47086117 0.37385243 0.79907709 0.047596406
8.6267319 -9.9901762 1.1548135 22.5 -0.52339149 0.34510991 0.7790767 0.04454127
9.0667448 -9.964139 1.1786361 19 -0.4349325 0.53298646 0.72578174 0.032050412
-3.7670572 -7.6220627 1.0439328 32 -0.47538093 0.83364004 0.28117108 0.12568618
11.03321 -7.8775668 1.1861025 29.166666 -0.98070514 0.17193098 0.093043648 0.091236398
-4.0528436 -7.593492 1.0568511 10 -0.55550802 0.77406603 0.30369827 0.12340761
-3.8240416 -7.48314 1.0318813 37.333332 -0.50031638 0.86176807 0.083901063 0.07096649
-3.4783986 -7.2276006 0.98486692 46 -0.4459289 0.89241719 -0.068840139 0.10255008
-2.9854929 -7.3498955 0.97410172 21 0.00049320143 0.95631868 0.29232574 0.10790187
-2.6465361 -7.3141656 0.95510751 31.142857 0.075831302 0.97708863 0.19886526 0.11522426
11.093598 -7.4069052 1.1670153 28 -0.79857886 0.60077327 0.036648873 0.078837194
11.376443 -7.373775 1.1861509 35.777779 -0.73086685 0.6738078 0.10870514 0.059544574
11.639101 -7.2559814 1.1999602 32 -0.75684255 0.64053464 0.13001779 0.071883194
-3.3164101 -7.144114 0.96710646 31.200001 -0.20559002 0.97697997 0.05694522 0.11732434
-3.040107 -7.1488771 0.95399326 28 -0.015262336 0.95630252 0.29198033 0.10584194
-2.6283767 -7.1002388 0.92961949 44.666668 0.26508033 0.95185578 0.15395772 0.085894339
11.534351 -6.9958467 1.180263 50 -0.75680089 0.64058155 0.13002916 0.071927369
11.765795 -6.9189467 1.194208 43.799999 -0.83872318 0.41372189 0.354087 0.10533756
-19.926889 -6.4515786 1.0976944 33 0.20913219 -0.24157606 0.94757837 0.017723819
4.7809548 -6.4141426 0.98226702 18 0.33992305 0.87631917 -0.34134603 0.031118846
4.9426208 -6.4411626 0.99689132 34 0.33990532 0.87632167 -0.34135708 0.031124018
5.407764 -6.6736917 1.0547062 27.200001 0.33993462 0.87631136 -0.34135434 0.031146351
11.660235 -6.6348209 1.1737263 30 -0.90418029 -0.27470994 0.32709712 0.11609431
-19.950356 -6.2293119 1.0953497 38.599998 0.23030017 -0.24427027 0.94196278 0.017601915
4.7925882 -6.3831282 0.98007339 36 0.33992335 0.87631899 -0.34134614 0.031118644
4.9471979 -6.3664918 0.99000573 32.5 0.33990532 0.87632167 -0.34135708 0.031124018
10.76587 -6.0489388 1.0803826 32 -0.84764248 -0.49120757 0.20054215 0.069593184
10.748321 -5.8785977 1.0718414 35.666668 -0.84760553 -0.49125847 0.20057446 0.069634899
10.87042 -5.9283977 1.0832877 29.666666 -0.75884277 -0.56367743 0.3262291 0.11103556
11.205141 -5.9428358 1.1096668 33 -0.72180688 -0.63190699 0.28229123 0.098616838
0.51899147 -4.8904548 0.95595312 17.25 -0.22450499 0.3672365 -0.90262663 0.21096025
8.4376545 -4.4186039 0.83329606 36 -0.90489143 -0.36193514 -0.22399651 0.093242802
0.48473984 -4.0997877 0.95314258 26.333334 -0.80842543 0.26950878 0.52327186 0.090701848
0.99189681 -4.1934299 0.83765155 21.6 -0.063384585 0.52151918 -0.85088193 0.16944298
1.6744695 -4.0049109 1.1631329 6 0.10787177 0.083325714 -0.99066675 0.099070415
8.2870131 -4.1414628 0.97451454 31.142857 -0.9280867 -0.33007774 -0.17234774 0.10876916
8.5583706 -4.1373696 0.99924445 24 -0.96136606 -0.25159886 -0.11168391 0.14511849
-1.2996111 -3.9098938 0.9678936 21.842106 0.30135491 0.93094748 0.20620871 0.046116643
-1.0262514 -3.8731716 0.99861819 32.659573 0.21522236 0.95659411 0.19648665 0.048283778
0.37504315 -3.8752031 1.0432134 19.666666 -0.82623649 0.35134879 0.4403263 0.10238179
0.5726797 -3.7984412 0.98439348 22.392857 -0.76813573 0.52733332 0.36316261 0.14536083
1.1020365 -3.7784057 0.93895721 24.5 -0.04139727 0.39962056 0.91574538 0.15515845
1.3831558 -3.6679893 0.92631298 25.428572 -0.1968154 0.29634085 0.93458325 0.13996309
1.6335409 -3.617892 0.91645062 24 -0.098929688 0.32215852 0.94150239 0.10097796
2.1150889 -3.6480408 1.1300904 23.333334 -0.25117916 -0.20146251 -0.94674277 0.16191879
8.3524275 -3.7844007 1.1259335 28 -0.96027309 0.14770068 0.23677024 0.11351097
8.567544 -3.7785401 1.0564368 24 -0.97192043 0.10796472 0.20907947 0.16184169
17.579922 -3.7303145 0.94183791 31 -0.50087732 -0.86508667 -0.027329221 0.063639469
0.7208479 -3.4222295 0.88924366 31.526316 -0.27582541 0.62241566 0.73247463 0.17908625
0.95937443 -3.3745546 0.87591338 27.926828 -0.35054779 0.44202632 0.82566881 0.13778521
1.3524623 -3.3582637 0.8929683 21.371429 -0.059621047 0.32041627 0.94539869 0.15580896
1.9595146 -3.5532007 1.012601 25 -0.039322466 0.48588142 0.87313974 0.12312777
2.1583242 -3.4107451 0.97948974 30.884615 0.056082416 0.68289644 0.72835934 0.14443739
8.3162708 -3.3949885 1.1029524 35.142857 -0.87886095 0.34148476 0.33315405 0.10686304
8.6281395 -3.2627716 1.0238456 34.333332 -0.75147182 0.61571634 0.2370304 0.13157891
8.9765244 -3.326879 1.0909296 30.625 -0.66537637 0.71395981 0.21802683 0.13567314
17.462227 -3.3874969 0.93222904 37.400002 -0.50079167 -0.86513668 -0.02731932 0.063657761
1.0866506 -3.1805201 0.90063274 23.666666 -0.34647366 0.43460533 0.83130866 0.12115812
1.4748701 -3.0262418 0.8889544 31.172413 -0.10554437 0.6910938 0.71501726 0.14567585
1.7256228 -3.0920582 0.83895069 18.166666 0.033813555 0.8522734 0.5220027 0.13939318
2.3131876 -3.1303103 0.89865899 38.545456 0.32839885 0.89408731 0.30456865 0.12287013
8.6911335 -3.042273 1.0498787 36 -0.80716026 0.54535604 0.22600688 0.15488216
8.9791117 -2.9658604 1.0433098 28.352942 -0.97641224 0.18182324 -0.11644453 0.21099967
9.2300472 -3.1745567 0.85395193 32 -0.36080578 0.92780906 0.094812773 0.12468247
9.7945719 -2.8437326 0.89230049 86 -0.92799449 0.36803648 0.05809756 0.17764685
17.487223 -3.0790498 0.93057525 45.200001 -0.61563623 -0.78192466 -0.097907528 0.08928664
-16.596972 -2.56637 0.88015127 23 0.38454822 0.13995118 0.91243422 0.029994709
9.0338869 -2.7024441 1.0158147 39.142857 -0.82430398 0.54713666 -0.14548005 0.22467592
9.3764114 -2.5576003 1.0111955 30.588236 -0.93031693 -0.056826852 -0.36232734 0.22652553
9.6969357 -2.6691601 0.87992436 34 -0.97379005 0.18936235 -0.12599546 0.14663698
16.620659 -2.6265066 0.88186091 70 -0.52289647 -0.84829986 -0.083466604 0.052912936
16.864849 -2.7558007 0.89557296 47 -0.63031328 -0.77625769 0.011361085 0.070976533
-16.577665 -2.2444618 0.87673205 14.5 0.34554711 0.10242112 0.93279529 0.033466123
9.4226971 -2.2141988 0.93269032 33.125 -0.61917955 0.78019267 0.088971935 0.1751564
15.462055 -2.0879059 0.81769705 40 -0.55027068 -0.83358645 -0.048330385 0.086891606
15.7678 -2.2135298 0.83447075 34 -0.5636943 -0.82497895 -0.040724754 0.072136477
9.4452314 -1.9732118 0.84419054 15 -0.20248984 0.97747153 0.05955964 0.18943991
15.246582 -1.734426 0.80419433 28.5 -0.65537637 -0.75253195 -0.064634278 0.093239516
-18.202646 -1.2122086 0.9560734 14 0.3259764 0.084637403 0.94158161 0.035550017
-12.67931 -0.18144551 1.1094229 31.4 0.11383741 0.86054409 -0.49649268 0.10304786
-11.753061 -0.024873191 1.0282634 24 0.8737191 -0.45044315 0.18361865 0.13798521
13.395977 -0.19234033 1.1721575 36.5 -0.88197547 -0.36063582 0.30341583 0.089649603
-12.453811 0.12389885 1.0896211 32 0.79823452 -0.50540131 0.32770592 0.14424984
-12.001071 0.16128957 1.0500524 6 0.65221941 -0.65832728 0.37578589 0.1743305
-11.780282 0.22122543 1.0308781 34.166668 0.63613707 -0.73654383 0.22985367 0.16328076
13.160551 0.064368747 1.1514144 29.5 -0.71332294 -0.61682397 0.33271402 0.080708563
13.281373 0.24816269 1.1621927 37.5 -0.70328307 -0.53915006 0.46336809 0.069433659
-12.1963 0.50278282 1.0679483 42.333332 0.79377007 -0.56595838 0.22275582 0.14431937
-11.969247 0.40960842 1.0477864 31 0.89855003 -0.37460452 0.22864667 0.18332051
-11.351787 0.67405152 0.99493504 32.200001 0.91918951 -0.35710657 0.1660289 0.15097193
-11.18213 0.63594449 0.97989202 24 0.82917458 -0.54758084 -0.11235989 0.11251295
12.696175 0.72446537 1.1125865 33.75 -0.68631846 -0.48992625 0.53753072 0.079495519
13.340996 0.52786088 1.1681193 45 -0.70724082 -0.5931679 0.38465846 0.068727992
-11.704608 1.086651 1.0284377 27.75 0.78116971 0.24135743 0.57577807 0.15263306
-11.522272 0.94109857 1.0114598 37.799999 0.72923249 -0.036464464 0.68329382 0.20317933
12.585885 1.0256828 1.104808 35.5 -0.75565743 -0.21368428 0.61912918 0.064521194
13.087517 0.86239129 1.1474924 80 -0.80540586 -0.39482033 0.44208404 0.058756102
-12.085782 1.4707645 1.0651827 35.799999 0.9598062 0.25362143 -0.1202006 0.10474985
-11.870937 1.2793502 1.0445906 41 0.79085588 0.50492829 0.34582409 0.12206093
12.653752 1.3970636 1.1138254 49 -0.76061732 0.024509955 0.64873761 0.053627085
12.841131 1.3383316 1.1295384 30 -0.72726589 0.0021549086 0.68635237 0.052509207
-12.086298 1.7973969 1.0691221 41.599998 0.83914745 0.54197758 0.045737736 0.098976754
-11.871679 1.7573973 1.0499827 46 0.77596152 0.61865503 0.12308418 0.11980896
12.745865 1.7818575 1.1259941 33.333332 -0.73601645 0.058603846 0.6744222 0.051564693
12.926301 1.760686 1.1413916 35.25 -0.72148561 0.055433735 0.69020689 0.051212765
13.313456 1.8592385 1.1760795 29 -0.63107669 0.15570006 0.75993407 0.031400938
-12.190739 2.2220368 1.0841303 22.5 0.72280473 0.6859296 0.083987601 0.063328832
-11.84234 2.0710778 1.0517955 25 0.68478835 0.70300233 0.19197048 0.11333305
12.751628 2.0767379 1.1303229 35 -0.2320407 -0.23129322 0.94480723 0.15376528
13.000786 2.2193677 1.1539421 31.142857 -0.64623755 -0.071248442 0.759803 0.10298862
13.291107 2.3794768 1.181309 43 -0.59647232 -0.11027858 0.79502165 0.094327956
-13.442965 2.544935 1.1969969 65 0.87637031 -0.41823536 0.2388602 0.13170436
-13.193726 2.7851636 1.1797401 29 0.89121068 -0.35559815 0.28159094 0.11432118
11.735604 2.6011965 1.0516791 23 -0.42850816 -0.89629763 -0.11415486 0.11641201
12.187156 2.7532036 1.0931073 9 -0.47290191 -0.87690854 -0.085994653 0.095964015
12.79457 2.4244976 1.1392999 30 -0.4528006 -0.64890873 0.61146474 0.16345738
12.972896 2.5683577 1.1570215 33.666668 -0.58159322 -0.71220261 0.39308619 0.14971547
13.278358 2.6605127 1.1847951 18 -0.59152722 -0.54637063 0.59293741 0.093605369
-13.333446 2.9122634 1.1940336 29 0.93539023 -0.26769185 0.23105454 0.15862687
-13.022035 3.0414684 1.1699787 37.833332 0.93283653 -0.28303498 0.22295119 0.16057375
-8.07024 3.0157316 1.0578259 2 0.97488147 -0.19949341 0.099038348 0.22230048
-7.3915682 2.9519219 0.97727036 11 0.75662929 -0.55018258 0.35328659 0.13459378
10.998001 3.0319855 0.9981367 37.833332 -0.77690721 -0.58750254 -0.22639789 0.12086426
11.338386 3.0629046 1.0275662 35 -0.80678898 -0.59010375 -0.029482372 0.095651194
11.687973 2.9254639 1.0541196 29 -0.52861184 -0.84748614 0.048340943 0.13290429
12.050899 2.9125197 1.0846823 41 -0.55413914 -0.83240408 -0.0057738544 0.11017483
-13.048182 3.2790451 1.1770674 35.666668 0.94777977 -0.20282198 0.2461234 0.15263976
-9.2196217 3.5853136 0.86545652 27 0.98181391 0.15693375 0.10683297 0.14467588
-8.3187313 3.2550664 1.0968242 22 0.9794746 -0.098395184 0.17592041 0.15068039
11.112645 3.4312704 1.017565 40.125 -0.76479673 -0.44723576 -0.46375221 0.13674782
11.249754 3.3750927 1.0275662 30 -0.83207297 -0.36358628 -0.41887897 0.15173599
-7.7303214 3.7625632 1.0556324 13.5 0.7607587 -0.4790915 0.43785569 0.24161066
-6.9672623 3.6037273 0.96313351 16 0.82929039 -0.51310641 0.22135773 0.15297751
11.075908 3.8107471 1.024812 33.599998 -0.904401 0.037342191 -0.42504641 0.16525151
11.351183 3.7772312 1.0466533 40 -0.86363989 -0.10053718 -0.49398223 0.17274494
-15.365957 4.246408 0.8354913 30.25 0.91573089 0.27847046 0.28963962 0.097707622
-15.04278 4.282342 0.81968582 38 0.89769888 0.24917716 0.36338338 0.088406235
-12.632603 4.3694935 1.1694556 42 0.90441179 -0.38019198 -0.19363232 0.09345603
-7.8662829 4.1837411 1.0940988 27.454546 0.56835538 -0.7124728 0.41152734 0.16662414
-7.4214649 4.2337132 1.0491327 19.333334 0.38748401 -0.80965483 0.44081202 0.14513081
-7.0950265 4.3569236 1.0223215 24 0.59526026 -0.66038042 0.45778048 0.20755062
10.96436 4.2485356 1.0287864 39.625 -0.83623278 0.24561167 -0.49029559 0.11882769
11.399817 4.1710315 1.0620217 47.333332 -0.84677136 0.2521103 -0.46842155 0.1560019
11.792269 4.1078687 1.0924972 27 -0.9377746 0.31676778 -0.14225645 0.16196202
-15.461959 4.6552324 0.84627247 18.666666 0.91053349 0.23866771 0.3375892 0.081321821
-14.938872 4.552897 0.81849957 17.333334 0.88547027 0.15306535 0.43876359 0.087774873
-12.623137 4.489481 1.1721575 39.5 0.88149768 -0.40630886 -0.24057199 0.10219325
-8.7412024 4.423161 0.85708958 20 -0.14644715 -0.89938593 0.41189581 0.17967027
-8.2440376 4.5396957 1.1555651 19 -0.26418385 -0.95697212 0.12004662 0.1334012
-7.7332773 4.6143465 1.1057206 17 0.27997452 -0.94033456 -0.19335248 0.21552846
-7.2566495 4.520854 1.0497826 31 0.57747704 -0.76750833 0.27830073 0.18121529
-7.0223403 4.6624799 1.0351096 34.533333 0.93409353 -0.26026425 0.24440089 0.2104705
11.183532 4.5821438 1.0573735 18 -0.79061407 0.44894859 -0.41638267 0.11324001
11.221612 4.5520673 1.0594652 46 -0.79196262 0.53260034 -0.29854995 0.13824645
-15.639377 4.8681254 0.85841441 14 0.94780874 0.20425701 0.24482173 0.073112406
-15.29947 5.1400595 0.84585381 29.5 0.9606328 -0.19616954 -0.19672848 0.13639612
-14.995617 4.9512515 0.82764095 25.333334 0.81366205 -0.22763012 0.53491926 0.15866862
-8.3610888 4.8331156 1.1857889 14 -0.27940026 -0.95056111 0.13553242 0.12821425
-6.9591231 4.9462557 1.0483202 27.333334 0.94169217 -0.32547951 0.085316718 0.2004645
-15.295178 5.4186282 0.85041749 18 0.83263761 -0.43810964 -0.33878416 0.17455792
-15.10533 5.515636 0.84276605 33 0.7402758 -0.67099863 -0.04186454 0.14289731
-14.375955 5.5299282 0.80722988 33 0.72730118 -0.48009852 0.49044704 0.13765498
-7.3500595 5.3993492 1.1198575 22.75 0.94172478 0.17130886 0.28949577 0.16099747
-7.069766 5.3033218 1.0851736 30.4 0.72869581 -0.3993533 -0.55634451 0.2243885
-6.6371989 5.3397107 1.0460157 31.09091 0.838682 0.32445705 0.43742448 0.20777753
-6.3509536 5.2502317 1.0117593 42 0.99771398 0.065593205 0.016256709 0.15874152
-15.277009 5.6996827 0.8545416 31 0.74027616 -0.67099804 -0.041868247 0.14289722
-14.642888 5.7507915 0.82446581 25.666666 0.73657554 -0.49688426 0.45887095 0.15604281
-7.3534884 5.6221642 1.1365535 23 0.85109144 0.40573898 0.33319557 0.13585813
-15.026222 6.1641469 0.85119206 25.666666 0.91237295 -0.40918389 -0.012008127 0.17818743
-14.57412 6.195353 0.82994366 20 0.86298418 -0.03113866 0.50427055 0.12388226
-14.191916 6.243783 0.81258905 32.599998 0.84923953 0.15562478 0.50455242 0.098631352
-7.2609553 6.2201991 0.93329608 15.857142 0.77984262 0.60938585 0.14315815 0.12064034
-7.00738 6.1086383 1.1414285 26.5 0.67559469 0.67363435 0.29964742 0.088884614
-14.610403 6.5748124 0.83967817 18.5 0.86904758 0.12711371 0.47811967 0.08809083
16.185604 6.6624618 0.91732389 34 -0.68346977 -0.72222286 0.10612839 0.079104587
-14.603264 6.9197612 0.84691793 27 0.88212585 0.32376379 0.34209782 0.10528219
-14.386528 6.9609132 0.83758479 31 0.92052317 0.099745423 0.37774047 0.093852416
-8.051837 7.0887465 0.93855113 39.666668 0.79415554 0.58004105 0.18129928 0.049102027
16.087124 6.990016 0.91924971 36.799999 -0.72751749 -0.67704594 0.11102708 0.089311048
-14.670576 7.2889199 0.85851914 7 0.68358099 0.63014477 0.36828601 0.093255229
-8.1017475 7.3344679 0.95613337 39.400002 0.91433668 0.39003217 0.10891859 0.052580182
-4.4270544 7.563868 1.0761064 22 0.87062323 0.49179009 -0.012562661 0.18546145
-4.3818302 7.507349 1.0673318 17.333334 -0.63325995 -0.77128702 0.064017311 0.23043057
-3.6568484 7.4782548 1.0221182 19 0.16370688 -0.88276601 -0.44036835 0.18090285
-3.5292296 7.4450912 1.0116619 24.799999 0.47520664 -0.8550626 -0.20747675 0.17760848
15.338805 7.4413438 0.89347953 75 -0.79945159 -0.60064924 -0.0098869922 0.081428498
15.821721 7.4717407 0.91699582 51.333332 -0.7744742 -0.62508672 0.097243555 0.098513164
16.181772 7.369381 0.93186796 30.5 -0.8211298 -0.56303668 0.093464456 0.096673377
-8.4940968 7.903398 1.0150739 45 0.68049645 0.73262233 -0.013750983 0.082067169
-4.4567103 7.9972653 1.1241229 30 -0.57388133 -0.8087821 0.12857573 0.17472531
-4.2339764 7.9311333 1.1039739 22.666666 -0.41443998 -0.87552041 -0.24840198 0.23619112
-3.8564878 7.6811199 1.0553277 31.5 0.017302528 -0.73764223 -0.67496997 0.15646403
-3.41396 7.8241916 1.0482506 27.428572 0.53004897 -0.77626497 0.34126344 0.22722797
-3.0698156 7.844224 1.0343187 26.444445 0.5182488 -0.79802698 -0.30752429 0.19148228
-2.493613 7.9536347 1.023459 10.666667 0.90021968 -0.42845714 -0.077646412 0.14203297
15.495022 7.7625961 0.90827316 46.333332 -0.83298022 -0.52627778 0.17080869 0.079564467
15.62609 7.7806702 0.91483265 52 -0.95080137 -0.26430646 0.16161382 0.099104881
-4.8387375 8.0721502 1.1555651 6 0.97643894 0.12866491 -0.17324074 0.15195407
-4.5189452 8.0609255 1.134685 11.333333 0.45290905 -0.89095569 -0.032731291 0.20797759
-4.2905936 8.1400537 1.0646526 14.4 0.207976 -0.9733693 -0.096426621 0.18625161
-3.7217274 8.329113 1.120223 22 0.44167411 -0.89712524 -0.0095004728 0.23485017
-3.5310006 8.3262558 1.1104736 24 0.62075424 -0.30894846 0.7205658 0.25410193
-2.9347708 8.2457161 1.0747658 46 0.46612719 -0.8823083 0.06524986 0.22737013
-2.7694407 8.3715734 1.0826874 35 0.93763131 -0.34436855 0.047516026 0.15258077
15.356194 8.087863 0.90959901 47.666668 -0.97100532 -0.10430354 0.21510306 0.074181423
15.670403 8.0120583 0.92236894 21 -0.96066934 -0.21422011 0.17670326 0.097958907
-3.030592 8.5813618 1.0771292 28.375 0.48520595 -0.84459037 -0.22636749 0.20489845
-2.7317376 8.4528198 1.0907307 36 0.93761706 -0.3444075 0.047514327 0.15258205
15.697497 8.6090345 0.93827915 43 -0.92544007 -0.26449305 0.27130082 0.075008541
-5.3262653 9.1294889 0.92472243 30 -0.69832635 -0.54142463 -0.46818766 0.037735876
-3.7323987 8.8015184 1.1738456 19 0.29771084 -0.93304127 -0.20199569 0.10982863
-2.659287 9.021781 0.98869699 35.625 0.96923178 -0.17626575 -0.17181414 0.11097866
-5.6572843 9.469677 0.96507549 18.5 -0.72483534 -0.52769411 -0.44289142 0.053116433
-5.676918 9.6144514 0.97684151 40 -0.7248345 -0.52769428 -0.44289246 0.053116176
-5.4316072 9.6592474 0.96952045 23 -0.47267509 -0.51722199 -0.71348411 0.11611149
0.59628862 10.640299 0.93242121 28.166666 -0.31680298 -0.94693089 0.054385837 0.14716776
-11.205689 11.096699 0.82648951 33 0.88478714 0.36559793 -0.28894612 0.10268332
-11.020343 11.050846 0.81792736 38 0.91249591 0.34053588 -0.22668609 0.11170931
-10.779381 11.049897 0.80900931 27 0.981583 0.033509403 -0.18807416 0.10850111
0.29919055 11.028278 0.96522075 25 -0.24967194 -0.96626288 -0.063245453 0.15577553
0.63349915 11.025284 0.96625215 26.75 -0.11384114 -0.972772 0.20187831 0.16565759
1.044661 11.045857 0.97074062 28.5 -0.066327408 -0.80493259 0.58964759 0.13254106
1.3931669 11.010138 0.97108924 27 0.014841329 -0.89598215 0.44384199 0.14412846
1.6089559 10.869593 0.96132785 69 0.13870606 -0.86146456 0.48850727 0.17749444
-0.47794864 11.32404 0.99161446 36.25 -0.63697869 -0.76158458 -0.11936106 0.10808413
-0.15147431 11.460964 1.002843 32.666668 -0.62530291 -0.77460766 -0.094759196 0.1111322
0.092377484 11.311139 0.98965347 25.5 -0.53706682 -0.83907223 -0.086700335 0.12497126
0.64523703 11.398144 0.99880481 31 -0.32503018 -0.85639083 0.40118581 0.24959061
1.0459065 11.404395 1.0019424 54 -0.11606951 -0.85204804 0.5104332 0.11599836
1.4185859 11.502302 1.0139699 39.142857 -0.27671498 -0.94832921 0.15524329 0.19518313
1.7019455 11.50106 1.0171946 36 0.79745156 -0.55050522 0.24701227 0.13709329
-11.227342 11.752847 0.85182011 42 0.96566457 0.022748502 -0.25879428 0.10065567
-11.142316 11.790895 0.85019767 45 0.96566105 0.022742493 -0.25880787 0.10068011
-0.68160635 11.821136 1.0359331 27 -0.64360803 -0.76526344 -0.011857448 0.088416182
-0.29064798 11.732482 1.0267818 29.25 -0.64806092 -0.75918716 -0.060430698 0.11114682
0.095801674 11.679612 1.021872 27 -0.58427393 -0.79405278 -0.16764297 0.13258819
1.7981058 11.764561 1.0412787 27.333334 0.85462344 -0.5041374 0.12435571 0.096519701
-1.5433664 12.390478 1.0924101 24 -0.82401419 -0.2414827 -0.51252973 0.093874998
2.0423832 12.178743 1.0803826 17.5 0.93432719 -0.35473308 -0.034599084 0.073042884
-8.7327366 12.782532 0.81131208 13 -0.47855166 -0.80224144 0.35692722 0.11365648
-1.4375532 12.54424 1.1046817 32.599998 -0.82537001 -0.1442932 -0.54584235 0.10813519
-8.5729132 12.855236 0.80979437 38.25 -0.47855166 -0.80224144 0.35692722 0.11365648
-1.3269168 12.840312 1.129364 27 0.68434364 -0.14437325 0.71472389 0.11727459
-0.87629837 12.821 1.1243091 6 0.85113555 -0.45038813 0.26966414 0.10581468
-1.3166863 13.429043 1.1805245 30.5 -0.21063964 -0.94872606 0.23569009 0.27808785
-1.1161675 13.576161 1.1917676 32 0.53771144 -0.79245931 0.28787968 0.25039196
-1.1213955 13.639627 1.1973455 25 0.21768227 -0.97359496 0.068755545 0.16690412
-0.69259983 13.672177 1.1976942 43 0.98606801 -0.11997041 -0.1152262 0.17806703
5.0029259 14.606659 0.80919772 28.799999 -0.089565396 -0.98251748 0.16320994 0.13553225
5.2664609 14.511319 0.80904418 32.333332 0.178553 -0.974388 0.13669941 0.087651014
6.068686 14.637338 0.83043212 34 0.42567879 -0.89726174 0.1171282 0.091497838
-3.4344125 15.032861 0.80815703 35.57143 -0.52569389 -0.84032977 0.13225691 0.10808579
-2.5310819 15.135958 0.80427289 34.75 0.43732363 -0.82736444 0.35244298 0.1599192
-2.2461288 15.133022 0.8017869 30.5 0.49762949 -0.82305628 0.27375764 0.14821921
4.3718309 15.077422 0.82272136 20 -0.82924098 -0.52656233 0.18732691 0.074625045
4.5744629 14.908857 0.81731766 32.5 -0.75744313 -0.60443085 0.24686673 0.12831174
4.8097405 14.846947 0.81790644 30 -0.24470326 -0.9334783 0.26218033 0.16409607
5.5796528 15.059543 0.84166694 35 0.34940779 -0.91036528 0.22169606 0.096477717
5.7855611 15.044472 0.84475476 37 0.27168939 -0.9240694 0.26885045 0.097043261
6.1751928 15.192446 0.85946119 28 0.45097694 -0.86933309 0.20218751 0.091054358
-14.251611 15.552901 1.1055448 11 0.26529059 -0.63465053 0.72583717 0.11670274
-10.685416 15.524136 0.98768431 17 -0.64405507 -0.76496685 0.0043193065 0.026189497
-2.9239898 15.356628 0.81926715 32 -0.09328384 -0.90982318 0.40437615 0.11732371
-2.7698071 15.271553 0.81340551 27 0.06355045 -0.94032305 0.33429599 0.15635853
-2.1510441 15.241267 0.80670661 29.666666 0.34755281 -0.91531324 0.20349158 0.12259972
-1.9620849 15.509908 0.81931949 31.5 0.32113102 -0.9221285 0.21576367 0.12196279
6.126811 15.294861 0.86349106 34.5 0.32693443 -0.9158023 0.2332812 0.098335169
-14.501072 15.66251 1.1186287 5 0.16487576 -0.39958677 0.90174633 0.1225194
4.2679753 15.744668 0.85492539 29 -0.83498186 -0.52398092 0.16807523 0.088294998
3.5635586 16.1007 0.86422372 24 -0.50700784 -0.85810882 0.081193194 0.14340688
3.8649292 16.25449 0.87562245 38.200001 -0.57267559 -0.79817379 0.18697935 0.13426322
4.1607237 16.239037 0.87855327 37.799999 -0.29984367 -0.90084863 0.3139514 0.18628283
-15.555759 16.629057 1.1933646 37 0.14669088 0.12970001 -0.98064244 0.050346203
-12.284904 16.705328 1.0867387 7 -0.27835885 -0.90178657 0.33060145 0.24104622
-11.618814 16.692507 1.0658742 12 -0.70406741 -0.70864093 -0.046012063 0.04952693
-4.5903563 16.597282 0.90248138 10 -0.84946638 -0.48600405 0.20544326 0.042086836
-4.0652637 16.607185 0.89604402 31.5 -0.83827657 -0.50156081 0.2138437 0.037678849
4.7195044 16.72295 0.91064578 24 0.14048192 -0.91110009 0.38750681 0.18359025
-4.6304727 17.197069 0.93335956 24 -0.78223354 -0.60445565 0.15081148 0.051788568
3.4080102 16.913406 0.90423077 38.142857 -0.84939134 -0.52623498 0.040137999 0.11348335
3.7314944 16.852921 0.90462708 33 -0.72302741 -0.67749643 0.13501842 0.12018524
-4.9210606 17.554253 0.95544529 7 -0.80008286 -0.59374273 0.085656308 0.052939419
-4.5096445 17.365738 0.94029403 30.5 -0.7737835 -0.61338502 0.15817045 0.049637739
3.0408001 17.440578 0.92781192 33 -0.96718264 -0.22654402 0.11504614 0.053268217
3.2309077 17.264174 0.9204849 31 -0.88206172 -0.44015908 0.16800909 0.097556882
