# .PCD v0.7 - Point Cloud Data file format
VERSION 0.7
FIELDS x y z intensity normal_x normal_y normal_z curvature
SIZE 4 4 4 4 4 4 4 4
TYPE F F F F F F F F
COUNT 1 1 1 1 1 1 1 1
WIDTH 550
HEIGHT 1
VIEWPOINT 0 0 0 1 0 0 0
POINTS 550
DATA ascii
-1.5385954 0.62197542 -0.44569409 32.582088 0.007862662 -0.018356713 0.9998005 4.1662533e-05
1.5339932 0.63110131 -0.44536602 29.539682 -0.0087234434 -0.015266364 0.99984539 3.279026e-05
1.7896743 0.57774919 -0.44472757 25.467533 -0.0093958527 -0.01604748 0.99982715 3.3588876e-05
2.1913185 0.60219967 -0.44236732 23.301888 -0.010808541 -0.014463353 0.99983698 4.6434401e-05
2.7139091 0.60459656 -0.44078866 15.697675 -0.011189559 -0.010630445 0.99988091 3.6047222e-05
3.4707754 0.59763914 -0.43266574 20.545454 -0.016359635 -0.0037670517 0.99985909 3.5378565e-05
4.753788 0.70663172 -0.42055547 18.666666 -0.034383032 -0.0033910878 0.99940294 0.00076676864
4.831677 0.57161659 -0.42576957 16.105263 -0.037951354 -0.004226495 0.99927062 0.00073342648
8.764554 0.7575075 -0.46104494 27.333334 0.050393797 0.0026494567 0.99872589 1.106892e-05
8.8959999 0.55101138 -0.46714133 29.09091 0.051104002 0.00094571116 0.99869287 9.7241418e-06
-8.0923214 0.93216377 -0.42692187 18.888889 0.11531249 -0.1732948 0.97809613 0.00045237227
-7.8690124 1.1281612 -0.41662416 20.857143 0.11555675 -0.18060537 0.9767437 0.00044574626
-5.2232938 0.86909461 -0.46327633 16.875 0.011600356 -0.044046309 0.9989621 0.00024033304
-5.1272893 1.0644206 -0.45819515 16.6 0.013650115 -0.047815111 0.99876291 0.00020832983
-4.6943831 1.1242239 -0.42233929 14.3 -0.0034280084 -0.032625902 0.99946171 0.00018021138
-3.7677104 0.92671037 -0.47648206 17.777779 -0.0005439666 -0.028830256 0.9995842 0.00022488507
-3.376076 1.0021611 -0.43264359 18.151516 0.0032497763 -0.024214022 0.99970156 0.00020111419
-2.569536 1.0005704 -0.43718228 16.933332 0.0011683627 -0.01593649 0.99987233 9.5824376e-05
-2.0596721 0.93178964 -0.43970865 25.361111 0.0022264605 -0.014327761 0.99989492 7.8794692e-05
-1.7645589 0.99050611 -0.44208834 25.661539 0.0076401476 -0.011651637 0.9999029 3.8467384e-05
-1.393796 1.0259781 -0.44652376 31.028572 0.0073151388 -0.0091608306 0.99993122 1.7883065e-05
-1.1825931 1.1812404 -0.44788641 34.25 0.0045867711 -0.0064683999 0.99996853 2.3378268e-05
1.1800663 1.1757962 -0.44639233 31.727272 -0.0082087079 -0.0067448462 0.99994355 7.4406212e-06
1.3973912 1.0218427 -0.44525856 29.266666 -0.008133769 -0.0068312106 0.99994361 8.1007238e-06
1.7685138 0.99489963 -0.4412728 25.285715 -0.0066378992 -0.0089056306 0.99993825 1.4160258e-05
2.0610025 0.9283638 -0.43967688 23.25 -0.0065519274 -0.011754974 0.9999094 3.0469013e-05
2.5751789 1.0004853 -0.43799534 14.25 -0.0074628661 -0.0077836197 0.99994189 1.2681031e-05
3.3425028 0.99750835 -0.42857388 19.833334 -0.012343599 -0.004196106 0.99991506 1.4265287e-05
4.5348163 0.99123955 -0.40626198 24.962963 -0.008134759 -0.002829564 0.99996293 4.1664069e-05
8.3784161 1.1819568 -0.44344261 29 0.047204155 0.0056083817 0.9988696 6.6953462e-06
8.6108103 0.98577213 -0.45426002 26.615385 0.04720553 0.0056087542 0.99886948 6.6953462e-06
-7.6818275 1.2806188 -0.4081507 20.666666 0.11605221 -0.18301839 0.97623575 0.00035908833
-7.5424738 1.3923736 -0.40196636 25 0.0076340488 -0.060189903 0.99815768 4.1509902e-05
-5.0488076 1.2982293 -0.4561151 15.333333 0.017243434 -0.050457496 0.99857736 0.00014997792
-4.5451465 1.4014707 -0.41627517 14.62963 -0.0026981707 -0.033289615 0.99944204 0.00018360704
-3.2930179 1.3981559 -0.43949139 18.84375 0.0059096012 -0.023981743 0.99969494 0.00018959788
-2.4397764 1.2775214 -0.43627107 16.842106 0.0019677116 -0.0099131344 0.99994886 5.8840997e-05
-2.3205767 1.4844726 -0.43652281 14.806452 0.0041190842 -0.0061096773 0.99997288 3.6911533e-05
-1.7787321 1.402406 -0.44119224 23.453125 0.0060018869 -0.0034814023 0.99997592 1.8556668e-05
-1.3509142 1.3599602 -0.44345582 27.609375 0.0062724464 -0.0026071831 0.99997693 1.4100056e-05
-1.0221854 1.3977964 -0.44941419 20.48077 0.0042997124 -0.0022166567 0.99998832 1.3040683e-05
-0.66122901 1.5462729 -0.45118371 30.540001 0.0031128891 -0.0057972218 0.9999783 1.2146706e-05
0.65952897 1.5446136 -0.45065367 30.807692 -0.0034876599 -0.0040042903 0.99998593 1.162163e-05
1.0193132 1.3944856 -0.4468185 28.990385 -0.0075986786 -0.0035234399 0.99996489 2.4136448e-06
1.3490129 1.3565203 -0.4425295 25.338709 -0.0077978019 -0.0038575451 0.99996215 2.0278044e-06
1.7667596 1.4042898 -0.43962395 22.138462 -0.0069894227 -0.0040850556 0.99996722 2.1413343e-06
2.3247941 1.4860104 -0.43717846 15.178572 -0.0065249144 -0.0049464023 0.9999665 3.2653795e-06
2.4456484 1.2841303 -0.43759942 15.190476 -0.0071055242 -0.0050692763 0.99996185 4.2357956e-06
3.1691532 1.4980506 -0.43048829 17.625 -0.0086300448 -0.0054412493 0.99994802 2.8681804e-06
3.221252 1.3082089 -0.42697608 19.444445 -0.0097491294 -0.0053431047 0.99993825 4.8949873e-06
4.5207791 1.4188355 -0.41465795 16.833334 -0.0094772158 -0.0026922489 0.99995148 3.7745911e-05
7.9054403 1.5104681 -0.42181474 24 0.046104219 0.0069781682 0.99891227 6.9410671e-06
8.177146 1.3141718 -0.43406284 28 0.047306813 0.0065137558 0.99885923 7.5085932e-06
-4.4219694 1.6378124 -0.4125604 15.2 -0.00016457133 -0.032133702 0.99948353 0.00020964519
-4.3017526 1.8346282 -0.40926063 15.347826 0.001446325 -0.030187435 0.99954319 0.00021059302
-3.2325497 1.6303438 -0.4445388 18 0.0076494212 -0.021208744 0.99974573 0.00016503263
-3.0298669 1.8357702 -0.43531111 17.333334 0.0086708693 -0.021887287 0.99972284 0.00014030104
-2.1163416 1.773261 -0.43771106 17.046511 0.0080636973 -0.0081139756 0.99993461 3.660626e-05
-1.8672642 1.8625752 -0.44234496 18.799999 0.010194033 -0.0076326276 0.99991894 3.3353579e-05
-1.4088531 1.7742649 -0.44129354 24.015625 0.0049365172 -0.0029559182 0.99998349 1.6282107e-05
-0.99707651 1.7591398 -0.44423789 26.784615 0.0017097995 -0.0045504505 0.9999882 1.7085111e-05
-0.56667322 1.7713716 -0.44627014 29.082354 0.002006744 -0.0071745012 0.99997228 9.5988453e-06
-0.20134039 1.7801802 -0.4481506 30.646154 0.0014844978 -0.0094571393 0.99995416 4.0289533e-06
0.19952823 1.7890085 -0.44970474 26.484375 0.00013369818 -0.0076272772 0.99997091 7.4971658e-06
0.56675935 1.7801648 -0.44805661 27.093023 -0.0018870461 -0.0052020014 0.99998468 9.943582e-06
0.99460727 1.7588472 -0.4454188 23.016129 -0.0062418072 -0.0045107869 0.99997032 7.4446148e-06
1.4093399 1.7731 -0.44123134 22.136364 -0.0077869636 -0.0037688171 0.99996257 3.2006699e-06
1.948162 1.9433478 -0.43587115 12.428572 -0.0074488851 -0.002467979 0.99996918 2.1905589e-06
2.12397 1.7479194 -0.43604022 13.560976 -0.0068744593 -0.0032288716 0.99997109 2.1257256e-06
3.0156975 1.8029709 -0.43174246 18.051283 -0.0077669579 -0.0044089109 0.99996012 2.6498615e-06
4.3608065 1.9012913 -0.41624126 15.083333 -0.010269204 -0.00071784068 0.99994701 2.9615478e-05
4.4344573 1.7143428 -0.41598764 15 -0.0097691482 -0.0015399448 0.99995106 3.1972446e-05
7.5129457 1.8552737 -0.40559417 21.272728 -0.062153514 -0.019315982 -0.99787974 3.586039e-05
7.6852651 1.6733302 -0.41221547 16.333334 -0.060319666 -0.015752107 -0.99805486 4.9061589e-05
-4.1170535 2.1590002 -0.40682784 15.478261 0.0080101993 -0.030921785 0.99948967 0.00016625525
-3.9591894 2.3527224 -0.40294278 15.5 0.024405507 -0.035328299 0.99907768 0.00012294459
-2.8254879 2.0459349 -0.42834029 18 0.013295083 -0.018587133 0.99973881 5.3909382e-05
-2.6503329 2.2527728 -0.42738593 16.729731 0.012705001 -0.02259922 0.99966389 4.5769921e-05
-1.7924691 2.1727378 -0.44665575 19.020409 0.0088142725 -0.012398485 0.99988425 3.9533104e-05
-1.5119392 2.3590617 -0.44388285 18.35 0.0075738584 -0.013534733 0.99987972 4.0923936e-05
-0.94316256 2.0677037 -0.44211397 21.6 0.00086585619 -0.005776362 0.99998295 1.4961081e-05
-0.60093075 2.1853323 -0.4411504 22.673077 0.0026204591 -0.010413375 0.9999423 1.6019119e-05
-0.20234044 2.249027 -0.43950424 24.117647 0.0014039289 -0.009761137 0.99995136 3.7567015e-06
0.19792946 2.2613344 -0.44181633 23.490196 0.00095309637 -0.01375247 0.99990499 1.409496e-05
0.60110623 2.2066672 -0.44516471 24.26923 -0.0025516639 -0.011185108 0.99993414 2.6486216e-05
0.94986945 2.078141 -0.44453949 20.5 -0.0053277495 -0.0056612515 0.99996978 9.7957818e-06
1.5206364 2.3295298 -0.44071862 14.5 -0.0060282005 -0.0045817443 0.99997139 8.0531981e-06
1.756341 2.1305511 -0.43771118 14.714286 -0.0069587133 -0.0032333459 0.99997056 4.1299249e-06
2.6879084 2.2580271 -0.43121582 17.586206 -0.0075972867 -0.0026633728 0.99996763 2.3604214e-06
2.8394086 2.0593243 -0.43070662 17.083334 -0.0079017384 -0.0027667405 0.99996495 2.2715226e-06
4.231564 2.2004657 -0.41743082 15.666667 -0.0085254759 -0.0016690694 0.99996227 1.1581918e-05
7.5339913 2.2046905 -0.4114331 26.76923 -0.059603587 -0.021110434 -0.99799895 1.5513031e-05
-3.8093948 2.5475051 -0.40105581 14.8 0.028254006 -0.04485083 0.99859411 0.00014008647
-2.4493809 2.4439363 -0.42486367 17.444445 0.014154803 -0.022582486 0.99964476 5.1457642e-05
-2.2111797 2.6347225 -0.42270669 17.571428 0.01549827 -0.024267744 0.99958533 2.6981797e-05
-1.9985077 2.7781467 -0.42020553 13 0.015398663 -0.026474319 0.99953091 1.5178373e-05
-1.3172371 2.4574027 -0.44174603 17.6 0.0060721273 -0.014590037 0.99987513 3.9344988e-05
-1.0024503 2.5815353 -0.43906647 16.222221 0.0038858422 -0.016353641 0.99985868 3.0965497e-05
-0.60018665 2.6904685 -0.43698859 16.761906 0.0013496189 -0.015879642 0.99987304 1.480184e-05
-0.20300665 2.7498302 -0.43710032 13.928572 0.0011758949 -0.016856901 0.99985719 1.4689707e-05
0.19847341 2.7561762 -0.43805391 12.761905 0.000531725 -0.016758502 0.99985939 1.2437648e-05
0.60118055 2.7171588 -0.44115263 13.714286 0.001201923 -0.015001194 0.99988675 1.6266409e-05
0.99387991 2.5872126 -0.43939608 15.295455 -0.00025532919 -0.012445514 0.99992251 2.4677549e-05
1.3188363 2.4629819 -0.44267616 13.107142 -0.0044438937 -0.0069365664 0.99996608 1.8947934e-05
2.3017812 2.6753821 -0.43348929 16.961538 -0.0057233796 -0.0051065558 0.99997056 8.4815147e-06
2.486006 2.4695134 -0.43032712 17 -0.006480095 -0.0029344847 0.99997473 2.6990137e-06
3.951648 2.710907 -0.41928253 16.181818 -0.0091673769 -0.0014646692 0.99995691 1.1837559e-05
4.0725894 2.5209854 -0.41909927 16.1875 -0.0099082254 -0.00041790493 0.99995083 5.2374171e-06
7.4949694 2.6228645 -0.4162125 29.882353 -0.071042195 -0.03293277 -0.99692947 1.4179566e-05
-2.0107155 2.8158007 -0.42483655 15 0.015398207 -0.026474031 0.99953091 1.5178384e-05
-1.7938093 2.9215333 -0.42126173 16.358974 0.015522106 -0.02725368 0.99950802 1.5954647e-05
-1.4092274 3.1236179 -0.42100132 16.17647 0.0094603579 -0.027477557 0.99957764 2.8344586e-05
1.5286469 3.1758699 -0.43280491 15.461538 -0.0020843316 -0.012539974 0.99991918 1.9779427e-05
1.8059516 3.0565836 -0.43619758 15.027778 -0.0029424019 -0.011961997 0.99992412 2.208604e-05
2.0955315 2.8691235 -0.43632883 16.950001 -0.0044964431 -0.0083496412 0.999955 1.7211767e-05
3.7652669 2.9983292 -0.42129341 16.066668 -0.0082658818 -0.0039089038 0.99995822 1.2861899e-05
7.1008148 2.9656913 -0.40330091 25.142857 -0.065047249 -0.031955533 -0.99737042 1.653272e-05
7.2584772 2.8567166 -0.40880665 26.4 -0.069368102 -0.033321854 -0.99703443 1.5822683e-05
-1.2149497 3.2152946 -0.42203358 16.5 0.010036205 -0.027142175 0.99958122 1.6064305e-05
-1.0050551 3.2828877 -0.4218142 16.114286 0.007730267 -0.02610839 0.9996292 2.0472995e-05
-0.60047174 3.3823905 -0.4220579 17.114286 0.0051188921 -0.024042463 0.9996978 2.0056752e-05
-0.19905983 3.4396961 -0.42327812 14.636364 0.0029873825 -0.021234708 0.9997701 1.3255315e-05
0.19947119 3.421916 -0.42111596 12.294118 0.0025778783 -0.019433748 0.99980783 1.0023439e-05
0.60225189 3.3469486 -0.41780996 15.314285 0.0028367711 -0.017517164 0.99984252 9.1941638e-06
1.0004818 3.298507 -0.42344269 16.1875 0.0020731443 -0.015449308 0.99987847 1.0191266e-05
1.3234862 3.2392914 -0.4297556 16.545454 0.00051481131 -0.014504315 0.99989462 1.4907058e-05
3.4451699 3.4094276 -0.42422429 15.785714 -0.0063421838 -0.0071090166 0.99995458 2.1216903e-05
3.6098278 3.2173619 -0.42305398 16 -0.0071762302 -0.0052887737 0.99996024 1.6257756e-05
2.6802294 3.934202 -0.41654292 13.705882 -0.0028760552 -0.011491545 0.9999299 1.6790791e-05
3.0277891 3.799561 -0.42519936 12.653846 -0.0040673888 -0.0097980509 0.99994373 1.9096984e-05
3.2582705 3.6414542 -0.42751136 14.857142 -0.0052631111 -0.0088593746 0.99994695 2.1451888e-05
1.8251334 4.3352675 -0.4116286 14.272727 0.0033437281 -0.014939094 0.99988282 7.8685434e-06
2.2026417 4.1951561 -0.41469347 14.740741 0.0010081796 -0.012692421 0.99991894 1.3172471e-05
2.4789648 4.0487657 -0.41536838 13.727273 -0.0013119859 -0.011477575 0.9999333 1.4744115e-05
0.27412683 4.5799723 -0.40146255 14.733334 0.0095006041 -0.032672293 0.99942094 6.9957758e-05
0.59907192 4.5859175 -0.40475133 15.48 0.0060512545 -0.028153297 0.99958533 4.32944e-05
1.0042486 4.5660987 -0.40915784 15.12 0.0039455229 -0.024592847 0.9996897 3.4786768e-05
1.4096117 4.5052814 -0.41313213 13.64 0.0034866321 -0.01653681 0.99985713 7.9142128e-06
1.6292405 4.4149647 -0.4117237 15 0.0038256121 -0.016093921 0.99986315 6.8116374e-06
5.7274098 5.0716357 -0.40095162 23.555555 0.015529275 0.013410246 0.99978954 1.8117566e-06
5.4975085 5.3803439 -0.40314972 19.777779 0.018402273 0.016255829 0.99969846 1.1894787e-06
5.6359396 5.2537804 -0.40380335 23.200001 0.018403806 0.016257387 0.99969846 1.7689756e-06
4.9187632 5.8886089 -0.40212625 20.666666 0.021034978 0.020365072 0.99957132 0
-5.3039412 -19.060795 -0.34534821 25 0.25141668 -0.028402679 -0.96746212 0.01128461
-5.1659145 -18.818867 -0.34063607 8 0.25141641 -0.028402384 -0.96746224 0.011284634
-5.3919244 -18.14654 -0.33044386 8 0.25141653 -0.028402397 -0.96746218 0.011284588
-5.1571269 -18.285789 -0.33163062 16 0.25141653 -0.028402463 -0.96746212 0.011284699
-14.226765 -17.276865 -0.39065465 27 0.81937617 0.19601005 -0.53870481 0.048220441
-14.919757 -17.12295 -0.3964256 40 0.25585872 0.10411278 -0.96109152 0.065903641
-14.632975 -17.096355 -0.39280134 32.5 0.77549154 0.25373214 -0.57812887 0.062793203
-14.305088 -17.052013 -0.38851383 21 0.81937617 0.19601005 -0.53870481 0.048220441
15.454381 -16.411263 -0.39348197 18 -0.20451833 -0.14681475 0.96779019 0.017055605
-15.489278 -14.729629 -0.37309754 18 0.81104612 0.23936914 -0.53376651 0.074839175
12.154405 -14.041328 -0.32416099 16 -0.79762191 -0.60165387 0.042564973 0.010766457
12.483559 -14.120025 -0.32897785 16 -0.085924216 -0.034421135 0.99570686 0.016809527
-14.745346 -13.783304 -0.35232046 23.25 0.86727273 0.43520838 -0.24172637 0.093132474
12.290964 -13.842883 -0.32313481 11.2 -0.79762083 -0.6016556 0.042562194 0.010766501
12.622159 -13.687644 -0.32499871 30.333334 -0.79762197 -0.60165387 0.042564649 0.010766457
-6.8993716 -13.361565 -0.26248419 22 -0.10112683 0.42338592 -0.90028763 0.039181422
12.359306 -13.592227 -0.32067052 33 -0.78717786 -0.61009008 -0.090227775 0.0093226321
12.703583 -13.584846 -0.32464966 16 -0.79762137 -0.60165471 0.042564534 0.010766733
12.963542 -13.324669 -0.32449841 27.666666 -0.67143977 -0.48205841 0.56283951 0.014452376
-16.086895 -12.464788 -0.35522628 17 0.90090454 0.24970339 -0.35499194 0.098380022
-2.0927997 -12.412897 -0.21972579 12 -0.75025851 0.66104531 -0.011463382 0.21877374
-2.6170285 -12.155581 -0.21703814 5 0.33153707 0.79578298 0.50676686 0.19953108
-2.6586995 -11.845351 -0.21190712 27 0.27373451 0.73046714 0.62568945 0.20078535
17.97452 -11.739806 -0.37473807 18 -0.16311228 0.15890197 -0.97372711 0.012561099
18.014072 -11.671673 -0.37466824 18 -0.15947509 0.17424138 -0.97170353 0.013518758
-2.2104967 -11.308011 -0.20112152 17.333334 0.43106422 0.88029522 0.19815123 0.19330439
-1.5144851 -11.396055 -0.20066777 21 0.60167104 0.79351914 -0.091210425 0.11019811
6.3522592 -11.218442 -0.22503133 6 -0.44073617 0.30849463 0.84296066 0.060236078
6.4248486 -11.211591 -0.2255549 18 -0.65664983 0.090808518 0.74870872 0.054259177
18.336632 -11.571775 -0.37847286 13.5 -0.26415581 0.17679064 -0.94813859 0.021674462
-9.8287277 -11.082096 -0.25855738 21.5 0.87058592 0.36202824 -0.33319032 0.13557175
-3.316077 -11.159233 -0.2032042 19.333334 -0.3145754 0.92745078 0.20218149 0.26298836
5.3309078 -10.966029 -0.21283792 5 -0.092924625 0.49866679 0.86179841 0.065437958
6.4879103 -11.145148 -0.22510114 34 -0.65667158 0.090782635 0.74869287 0.054257952
18.354244 -10.833061 -0.37201551 9 -0.82667726 -0.37877369 0.41609514 0.013159111
-10.0506 -10.462382 -0.25323442 49 0.87075698 0.36161712 -0.33318949 0.13547853
-9.8965549 -10.591713 -0.25303 36.142857 0.87070012 0.36175856 -0.33318475 0.1355048
-2.8543439 -10.615252 -0.19187176 7 -0.30099335 0.94582707 -0.12171286 0.073208891
-2.6386504 -10.546682 -0.1897731 25.875 0.0040611485 0.99216294 -0.12488484 0.074473195
18.34235 -10.699172 -0.3706542 26 -0.82667726 -0.37877369 0.41609514 0.013159111
18.55443 -10.433561 -0.37156174 8 -0.82668489 -0.37877199 0.41608161 0.013158509
-10.520687 -10.106777 -0.25464809 28 0.8215152 0.53241628 -0.20407256 0.18793955
-10.174296 -10.120862 -0.25050023 44.333332 0.82150418 0.53240824 -0.20413809 0.18800734
-9.9585304 -10.223064 -0.24911565 30 0.85811836 0.37145925 -0.35447273 0.12908098
9.9930038 -10.105254 -0.24806851 63 -0.95631379 0.21643887 -0.1965151 0.20488623
10.071238 -10.078206 -0.2486968 45.5 -0.95631379 0.21643887 -0.1965151 0.20488623
18.562794 -10.353148 -0.37100327 17 -0.82668489 -0.37877199 0.41608161 0.013158509
10.13031 -9.8605175 -0.24676539 54.833332 -0.95627546 0.21667406 -0.19644237 0.20490123
18.063259 -9.9550114 -0.36000824 39 -0.83970141 -0.37488806 0.39288741 0.01318939
9.8717804 -9.3126669 -0.23688734 43.333332 -0.94212484 0.23102203 -0.24296007 0.11368995
10.332273 -9.3769035 -0.24354833 33.5 -0.92674232 0.29772106 -0.22915255 0.20424962
9.7349348 -8.8967361 -0.23020595 25.25 -0.85484719 0.17834717 -0.48726627 0.10054095
10.23159 -8.9445152 -0.23722474 53.333332 -0.8747592 0.17661978 0.45122248 0.14865638
10.443827 -8.8695507 -0.23916778 59 -0.4435842 0.37657005 0.81328219 0.14397946
4.1845713 -8.4751625 -0.16498631 12 0.12006372 0.48648879 -0.86539775 0.038916823
4.7554226 -8.5019302 -0.17003879 20 -0.054588884 0.41167057 -0.90969628 0.032266103
9.9211264 -8.7251301 -0.23061611 25 -0.87414604 0.20431247 -0.44059634 0.096171737
10.267399 -8.5697565 -0.23344341 43.5 -0.69298154 0.2057346 -0.69097745 0.12612103
4.2368159 -8.1316786 -0.16005352 15.857142 0.50870544 0.58298451 -0.63352025 0.07342422
4.4576612 -8.1689119 -0.16243827 15.25 0.50863338 0.58301347 -0.63355142 0.073418371
10.258829 -8.1746225 -0.22897556 45.444443 -0.70995611 0.19717193 -0.67608112 0.13121669
10.411337 -8.0033436 -0.22921991 57 -0.52573329 0.33480716 -0.78199017 0.12059402
11.087754 -8.2224874 -0.24094793 6 -0.2797125 -0.13837174 -0.95006013 0.13721478
-3.2379618 -7.7825952 -0.14713542 4 0.98217964 0.11530349 -0.14841895 0.12792331
10.479544 -7.9111676 -0.22919372 50.25 -0.48427457 0.29917416 -0.82217568 0.097798467
11.482555 -7.7315855 -0.24163206 41.599998 -0.37696934 0.052927949 -0.92471224 0.12218551
11.647711 -7.6656737 -0.24339128 20 -0.31277207 -0.35093817 -0.88261878 0.1393507
-4.0996394 -7.1583481 -0.14399108 17.5 0.50074446 0.80598587 -0.31566107 0.20548551
-3.4770617 -6.9321275 -0.13537395 22.5 0.81260681 0.020635098 -0.58244681 0.13827126
-5.2679963 -6.5873098 -0.14722851 18 0.047606058 0.76345438 0.6441049 0.081674583
-4.8885522 -6.4217911 -0.14087583 22 -0.14869557 0.88056147 0.4500013 0.11364656
-4.1066351 -6.472744 -0.17184316 27.428572 0.12861657 0.27108383 0.95392412 0.21751377
-3.8269932 -6.5259466 -0.16118045 14.777778 0.83446211 0.10752287 -0.54047364 0.20527121
-3.5188987 -6.5234623 -0.18629111 16.888889 0.85197097 0.12226274 -0.50911433 0.13202272
-4.9232397 -6.2289953 -0.13859829 8.875 -0.11781419 0.73300552 0.66994232 0.084256828
-4.5884089 -6.2243319 -0.1349896 17.636364 0.015226575 0.65089345 0.75901634 0.14100926
-4.1691561 -6.2279711 -0.24784191 31.6 0.070299909 0.479743 0.87458825 0.14424044
-3.7677963 -6.2335758 -0.29493657 30 -0.25231576 0.31528577 0.91483968 0.14680719
-3.5801351 -6.1315794 -0.37210867 24 0.04063224 0.38996103 0.91993445 0.10812295
9.6280775 -6.006948 -0.19808482 15 -0.23732422 -0.16394372 -0.95749658 0.074139342
-4.9240322 -5.897439 -0.1341043 8 -0.12794697 0.56972301 0.81181604 0.078145437
-4.179224 -5.8125577 -0.37526375 20.285715 0.093130119 0.1880396 0.97773606 0.083749726
-3.7737458 -5.9191957 -0.3679741 19 0.087496318 0.36300495 0.92767012 0.091887422
7.8717437 -5.7006459 -0.16965136 31.799999 -0.91779953 -0.067901388 0.39119491 0.053161714
9.5826759 -5.9322529 -0.19672352 25 -0.23730578 -0.16394527 -0.95750087 0.074139372
9.656147 -5.9312119 -0.19780558 5 -0.23730578 -0.16394527 -0.95750087 0.074139372
-4.4004087 -5.5798888 -0.3724227 2 0.02608492 0.19309324 0.98083359 0.085635282
-4.1550508 -5.5234799 -0.36226952 18.666666 0.13106114 0.18342283 0.97425818 0.039911333
-3.9699495 -5.4501505 -0.35337242 8 0.085949205 0.1894969 0.97811234 0.023528798
7.9311581 -5.5738974 -0.16920981 31.5 -0.92761296 -0.16052483 0.33729213 0.04899051
8.1160192 -5.4035687 -0.17021331 13.5 -0.92021674 0.066692114 0.38568541 0.18488546
16.675673 -5.2258387 -0.30503315 8 -0.63107485 -0.51642889 -0.57883137 0.038829651
0.53602219 -4.8014369 -0.08433003 23 0.19556835 0.88644487 0.41948605 0.22858179
8.7306786 -4.9906869 -0.17553632 26.666666 -0.70538867 0.6225242 -0.33895507 0.11724532
8.924098 -4.8574967 -0.17735136 17 -0.87299365 0.26649973 -0.40848494 0.15550257
16.416826 -5.0818563 -0.29997197 32 -0.52952218 -0.561638 -0.63574284 0.032422323
-19.952969 -4.7166815 -0.35787904 26 0.032591846 0.010223788 -0.99941635 0.027894117
-5.7398963 -4.5403638 -0.20060842 5.5714288 0.033259146 -0.028223669 0.99904811 0.026095338
-5.3830957 -4.561316 -0.27477145 11.111111 0.10494056 -0.032042485 0.99396211 0.026806649
-5.1438565 -4.5774279 -0.20064668 11.866667 0.14314909 0.0027794712 0.98969716 0.025705328
0.55764925 -4.7687674 -0.083806455 20.5 0.41743481 0.89641356 -0.14896584 0.22077602
8.7759905 -4.6556306 -0.17340711 16 -0.89829242 -0.10176229 -0.42745197 0.12121123
8.9027767 -4.5674095 -0.17466803 29 -0.94913685 -0.097856604 -0.29927123 0.10316546
15.824949 -4.690546 -0.28810433 8 -0.53246158 -0.494946 -0.6866681 0.031468209
-5.4538531 -4.3090053 -0.33449391 14.25 0.10802631 0.018442471 0.99397689 0.025283985
-5.161346 -4.3688493 -0.2756404 10.666667 0.19705985 0.046435039 0.9792912 0.019894047
-1.4647356 -4.0796518 -0.22811992 5 0.34127548 0.89663374 0.2820974 0.041928876
-0.46434611 -4.1773267 -0.12566537 24.214285 -0.22614577 0.77118874 0.59508485 0.079223633
-0.31471619 -4.0945039 -0.16082808 33.46154 -0.3069309 0.68528074 0.66044205 0.069393732
8.6521435 -4.1321616 -0.16736859 21.333334 -0.87771213 -0.17720832 0.44521755 0.14367422
8.9889793 -4.2058964 -0.17325005 28.5 -0.99950272 -0.020143174 0.024260413 0.13138691
14.833241 -4.0857553 -0.26855764 7 -0.44838077 -0.45227176 -0.77097666 0.085625835
15.685315 -4.0331407 -0.28269407 32 -0.52654839 -0.41273379 -0.74323452 0.039424963
-1.7005855 -3.6897013 -0.19032194 7.28125 0.38641059 0.74741757 0.54042011 0.10550334
-1.4445742 -3.9827995 -0.073953323 6.1428571 0.34127453 0.89663476 0.28209516 0.041925602
-0.16231953 -3.80334 -0.11955757 28.771429 -0.50221735 0.60442013 0.61842865 0.086744919
0.041000955 -3.915189 -0.068343624 15 -0.6118238 0.6067524 0.50746739 0.13197851
0.81743562 -3.6257939 -0.32517809 38 0.20147209 0.68798697 0.69719648 0.20422067
1.4707366 -3.7493439 -0.070305273 15.2 0.5736655 0.79796183 -0.18483736 0.116708
1.6993736 -3.8476005 -0.19222525 11.8 0.44356427 0.89237034 0.08322227 0.11141355
8.6544218 -3.8023357 -0.165015 27.428572 -0.62812048 0.11866616 0.76901436 0.18068314
8.918045 -3.8335819 -0.1694489 24.4 -0.85254586 0.16677193 0.49533078 0.18108214
9.3131847 -3.7570999 -0.17529197 12 -0.69647038 0.27251956 0.6638239 0.1433782
14.517629 -3.8921711 -0.26235619 34.333332 -0.79141283 -0.36029938 -0.4938117 0.16731493
14.908687 -3.6665685 -0.26798752 58.333332 -0.51383871 -0.2943458 -0.80581039 0.13392149
15.692236 -3.9736607 -0.28255445 56 -0.49159572 -0.38482729 -0.78117967 0.038996961
-0.10096163 -3.3347256 -0.2800115 14 -0.3070285 0.24205332 0.9204042 0.11485362
0.22799784 -3.2341247 -0.39817524 18.153847 -0.1740495 0.025898941 0.98439628 0.15304843
0.72958791 -3.3137176 -0.12404249 24.363636 0.071154051 0.67544144 0.73397267 0.15560853
1.0515796 -3.3039775 -0.17512047 25.571428 0.61495262 0.69629765 0.37013888 0.20649974
1.3604741 -3.3555555 -0.15493199 11.463414 0.35512006 0.68344533 0.6378026 0.21254173
8.7216139 -3.5556741 -0.16440167 22 -0.45819962 0.45171908 0.76550835 0.13685296
8.9187193 -3.4166822 -0.16671702 13.777778 -0.57276249 0.46936256 0.67204309 0.154898
14.918997 -3.4480939 -0.26728013 35.799999 -0.54095846 -0.021924436 -0.84076351 0.11858615
-0.067423783 -3.0534897 -0.26447329 11.666667 -0.050602447 0.13001953 0.9902193 0.10539243
0.2094062 -3.026423 -0.177589 12.100841 -0.21249363 0.49210015 0.84420609 0.14030716
0.6016556 -3.0001118 -0.18761769 18.049019 -0.34497517 0.60044086 0.72143114 0.18045537
0.9622587 -2.9710965 -0.20943709 18.719999 0.078272864 0.68630821 0.72308671 0.1652187
1.3080286 -3.0607738 -0.1136337 2.5 0.55865902 0.63182938 0.53730047 0.13445525
9.0807705 -3.0913465 -0.16743839 11 -0.51932305 0.25483504 0.81569761 0.077699967
9.299983 -3.1297903 -0.17127791 4 -0.55807078 0.2406285 0.79413778 0.094183281
13.534688 -2.8324745 -0.24136679 40 -0.74418283 -0.26376152 -0.6136952 0.081878684
14.271049 -3.0898879 -0.25487494 35 -0.33902773 -0.4681434 -0.81602812 0.11157866
-0.22869071 -2.7622378 -0.31578538 7.5 -0.024118636 0.2597734 0.96536833 0.057147201
0.72659844 -2.676481 -0.23794095 17.82353 -0.20388235 0.43287539 0.87809503 0.13426296
0.90509427 -2.6866133 -0.24733466 14.4375 -0.060722552 0.48602057 0.87183523 0.15789787
7.1637225 -2.4080756 -0.39607856 2 0.049649835 -0.015844785 0.99864095 5.4702359e-06
13.394748 -2.6088674 -0.2382054 45 -0.71113837 -0.25995621 -0.65322667 0.097219236
15.002102 -2.6803117 -0.26600957 29.5 -0.38502783 -0.27415282 -0.88124555 0.11100977
7.1048107 -2.3055661 -0.39147297 4 -0.050435089 0.014261504 -0.99862546 3.094043e-06
13.505755 -2.2188818 -0.238906 34.25 -0.78684181 -0.24451688 -0.56664926 0.12205668
14.299891 -2.2239637 -0.25260612 14 -0.29724178 -0.092389472 -0.95032179 0.069371581
15.328296 -2.2707255 -0.27047738 25 -0.34763917 -0.2177043 -0.91200435 0.048308238
-15.17137 -1.8493721 -0.26677749 37 0.07318648 0.084974542 -0.99369156 0.034861449
-0.5762229 -1.630821 -0.33620548 8 0.16558626 0.74638069 -0.64459068 0.12075045
-0.31689742 -1.61799 -0.30738914 13.769231 0.1127551 0.66444433 -0.73878276 0.14405438
6.258296 -1.630164 -0.33892769 2 -0.01794431 -0.03968792 0.99905097 0.00086112076
6.5346832 -1.6898596 -0.35373878 5 -0.011043518 -0.021553218 0.99970675 0.00097598747
7.0769506 -1.6729882 -0.38111049 2 -0.051784985 0.0099334838 -0.99860889 1.0365588e-06
13.403581 -1.7792228 -0.23601471 12.666667 -0.7071209 -0.60032141 -0.3736231 0.13273533
13.612705 -1.654577 -0.23935975 22.5 -0.5576666 -0.11176369 -0.82250649 0.16443452
-0.48214096 -1.4751478 -0.18069451 8.541667 0.26864702 0.75546914 -0.59757453 0.10480916
-0.28052381 -1.5887967 -0.19809863 14.5 0.11275637 0.6644485 -0.73877889 0.14405362
6.2737656 -1.3823996 -0.33678192 13 -0.010375002 -0.033140697 0.99939692 0.0012193935
6.6709805 -1.4278383 -0.35755929 15.333333 -0.0057795271 -0.033032201 0.99943751 0.0011929628
12.529187 -1.3141484 -0.21990032 61.5 -0.82483172 -0.31076619 -0.47231027 0.13148524
13.620214 -1.5831398 -0.2393423 39 -0.44036791 -0.42567411 -0.79049206 0.15475512
5.9549942 -0.94637495 -0.31600451 8 -0.039437305 -0.01984562 0.99902487 0.0011014849
6.0827627 -0.94383579 -0.32259887 8 -0.020949237 -0.017633369 0.99962497 0.0013184759
12.577826 -1.0422964 -0.22030608 46.625 -0.99819058 -0.042495672 -0.042540271 0.11275054
14.292318 -0.88669282 -0.24995336 17.5 -0.80826628 -0.20921324 -0.55039579 0.14823399
-15.294685 -0.63034183 -0.26719633 7 0.025475634 0.011398141 -0.99961048 0.0324958
7.5351963 -0.66182446 -0.39643908 40.888889 -0.057629164 0.014413279 -0.99823403 4.0187413e-05
7.6062884 -0.49587083 -0.3994804 25 -0.05256648 0.004501435 -0.99860728 3.2665216e-06
12.710157 -0.58803833 -0.22209932 48.57143 -0.88714665 0.26356426 -0.37882018 0.08693511
12.875324 -0.41587058 -0.22485681 37 -0.82473511 0.39467508 -0.40502289 0.13968265
-16.283449 -0.048313655 -0.2842299 24 0.080205336 0.060241885 0.99495625 0.041506756
-15.60885 -0.15528828 -0.27246696 7 0.058683425 0.035102651 0.99765933 0.039954416
-15.56631 -0.19108863 -0.27173397 12.333333 0.058683425 0.035102651 0.99765933 0.039954416
12.782751 -0.3682186 -0.22321628 18 -0.95162785 0.25434622 -0.17237309 0.13515903
13.329964 -0.013959109 -0.23267549 45 -0.91797608 0.12264068 -0.37719923 0.24752358
-16.202765 0.17641337 -0.28284368 29.714285 0.058683682 0.035102692 0.99765927 0.039954342
4.5258451 0.30541915 -0.39686367 23 -0.034917969 -0.0027799408 0.99938631 0.00080048223
5.9290161 0.17649551 -0.25903863 35.5 -0.011283274 0.017399533 0.99978495 0.0010097465
12.706589 0.29722646 -0.221855 55 -0.73258531 -0.083811805 -0.67549556 0.13683549
12.996888 0.21305764 -0.2268929 26.333334 -0.86474234 -0.36168581 -0.34843078 0.24175249
13.647881 0.03335024 -0.23822536 39 -0.69626087 -0.58563083 -0.41503891 0.17697495
-16.606623 0.7008242 -0.2901288 34.666668 0.83847058 0.51230031 0.18578333 0.0099584833
-16.345518 0.49079326 -0.28544283 34 0.080205739 0.060242146 0.99495625 0.041506719
-10.023073 0.68503314 -0.17536178 18.5 0.20571715 -0.13474794 0.9692902 0.0069682687
-9.941637 0.76607889 -0.17404704 37.333332 0.19613427 -0.10949244 0.97444481 0.010725048
12.678581 0.56234711 -0.2215292 50.333332 -0.67136812 -0.16203238 -0.7231946 0.084590755
12.838296 0.63571781 -0.22436816 39.5 -0.65544689 -0.19135107 -0.73059839 0.1128115
-16.682632 0.93571198 -0.29165763 25.6 0.82511413 0.52293116 0.21384531 0.0096913129
-10.001623 1.086524 -0.17560612 17 0.23629767 -0.087958768 0.96769136 0.011857666
-9.9145985 0.93737328 -0.17383595 44.57143 0.21829301 -0.090586022 0.97166979 0.010122607
19.805483 1.1523845 -0.34629065 8 -0.78940475 -0.59242886 -0.16083537 0.019621274
-7.4250455 1.5176697 -0.39718509 18 0.010656734 -0.062913485 0.99796212 4.9779283e-05
-6.9045048 1.5677519 -0.37106195 16 0.013435944 -0.067542322 0.99762589 6.8895999e-05
12.024746 1.5037732 -0.21153013 23.799999 -0.57553339 0.018611107 -0.81756645 0.09957695
12.78549 1.2558982 -0.22424597 36 -0.4559595 -0.030205281 -0.8894878 0.065732948
12.896706 1.3828754 -0.22640425 14 -0.38316751 0.0072370092 -0.92365056 0.076724082
19.076569 1.5113349 -0.33402744 27.666666 -0.71445417 -0.42463547 -0.55609345 0.011957265
19.344681 1.3968301 -0.33854178 34 -0.78940517 -0.59242773 -0.16083768 0.019623065
19.703245 1.2821568 -0.34465012 33.666668 -0.78940475 -0.59242892 -0.16083576 0.019621246
-17.109819 1.9479904 -0.3005828 32 0.86539239 0.41978836 -0.27363071 0.024263937
-7.3175712 1.6678385 -0.39333963 21 0.010657138 -0.062913977 0.997962 4.9740389e-05
-7.0582538 1.8056901 -0.38185126 19.692308 0.014808298 -0.067180298 0.99763095 7.0065711e-05
-6.6268167 1.8207066 -0.36023116 16.31579 0.014705795 -0.062917382 0.99791044 8.6005777e-05
19.083887 1.7100018 -0.33444628 30.333334 -0.7144534 -0.42463431 -0.55609542 0.011957544
-17.391052 2.2524951 -0.30610126 27.200001 0.86539119 0.41978672 -0.27363724 0.024264982
-17.138319 2.0405846 -0.30126345 24 0.86539131 0.41978687 -0.27363649 0.024264982
-12.175747 2.1881416 -0.21594445 17.333334 0.36832801 -0.37825391 -0.84926939 0.16285841
-11.725715 2.1478279 -0.20807923 23.666666 0.41829869 -0.59855938 -0.68319321 0.10401954
-10.340789 2.3133342 -0.1849606 9 0.75653821 0.26542443 0.59766197 0.17347962
-6.4283323 2.0584302 -0.35374925 21.200001 0.01254395 -0.059846729 0.99812877 0.00011388376
-6.249464 2.2548001 -0.34823036 15.5 0.014581745 -0.059114501 0.99814469 9.9715406e-05
12.023376 2.2284036 -0.21344294 11 -0.35655284 -0.31502143 -0.87956327 0.16318761
19.390409 2.2195454 -0.34067097 8 -0.65996766 -0.3711012 -0.65324318 0.011511794
-17.877481 2.6974604 -0.31558606 21.666666 0.043174114 0.013220544 -0.99898005 0.07380566
-17.466156 2.4795845 -0.30793023 33 0.043169506 0.013218788 -0.99898028 0.073804833
-12.188998 2.5394399 -0.21732901 19.333334 0.3064748 -0.44593582 -0.84096044 0.17250898
-11.668142 2.6420269 -0.2088355 25 0.25312951 -0.15548566 -0.9548558 0.15692812
-11.443802 2.6451335 -0.2050259 26.571428 0.021551091 -0.11863968 0.99270344 0.14143454
-10.584153 2.7766919 -0.19099914 4 0.57495159 0.073006108 0.8149237 0.17372675
-6.0544491 2.4737473 -0.34277436 18.25 0.014861584 -0.056570426 0.99828798 0.00010192864
-5.899579 2.6761701 -0.33954075 15.428572 0.021335345 -0.073941126 0.99703437 0.00051406934
-3.6792905 2.6907439 -0.39888802 14.454545 0.029285491 -0.044098891 0.99859786 0.00015110552
-3.595207 2.7897327 -0.39812744 14 0.028924737 -0.04532193 0.99855357 0.00014907503
18.570866 2.6466393 -0.32743508 13 -0.71398634 -0.39489216 -0.57817274 0.012858042
-17.754366 2.9177496 -0.31406477 24.25 0.043170128 0.013219078 -0.99898022 0.07380484
-11.279294 2.9600663 -0.20355615 43.625 0.30188173 0.066124037 0.95104939 0.20949695
-11.162324 3.0222771 -0.20185454 37 0.13040546 -0.037823442 0.99073911 0.19115353
-10.676242 2.9990094 -0.19357337 4.75 0.0022248984 -0.12612981 0.99201125 0.17453867
-5.6912255 2.8984263 -0.33474079 23 0.025487458 -0.072984405 0.99700731 0.00051604566
-5.4503517 3.0923631 -0.32844552 26.142857 0.030929254 -0.079519227 0.99635339 0.00063144026
-3.3953924 2.9905674 -0.39609542 14.171429 0.028819371 -0.049155727 0.9983753 0.00017307347
-3.1769259 3.1928291 -0.39406013 14.333333 0.028704332 -0.049966674 0.99833834 0.00018095295
6.9229097 3.1068451 -0.39768788 26.5 -0.057120372 -0.028360426 -0.99796438 1.8853716e-05
11.552261 3.1581736 -0.20904493 5 -0.93275225 -0.34526643 0.10375144 0.1266346
11.660992 3.1005752 -0.21061565 5 -0.93275332 -0.34526676 0.10374065 0.12661065
18.243614 3.0598915 -0.32289279 19 -0.71762925 -0.41638377 -0.55824089 0.0207734
18.469112 2.8657827 -0.32623783 25 -0.72517514 -0.37571067 -0.57702899 0.013055854
-18.027115 3.5596573 -0.32074031 24 0.014579643 0.033058498 0.99934703 0.06962736
-17.931099 3.4140522 -0.31861112 8 0.014579956 0.033058591 0.99934703 0.06962736
-14.472341 3.2906907 -0.25906351 7 0.11296038 0.26678216 -0.95711398 0.052230373
-14.361398 3.3182299 -0.25728339 7 0.41659445 0.80619824 -0.42011124 0.10203704
-13.950684 3.4022827 -0.25065148 7 0.41659075 0.80620199 -0.42010769 0.10203651
-10.833048 3.3725014 -0.1980499 5 0.94397378 -0.30712461 -0.12078044 0.15544513
-10.790347 3.3360422 -0.19714238 5 0.94396597 -0.30715403 -0.12076674 0.15543784
-5.2996902 3.2554204 -0.32596579 24.333334 0.033119135 -0.087982744 0.99557126 0.00059017522
-5.0054827 3.4452713 -0.31855157 22 0.036034156 -0.0920178 0.99510515 0.00061066111
-2.9809844 3.3367059 -0.39160943 15.357142 0.028890926 -0.054769002 0.99808097 0.0001956012
-2.702796 3.5339756 -0.38929203 15 0.026944093 -0.05425163 0.9981637 0.0002271527
6.6867599 3.4295735 -0.39389354 25.125 0.021332968 0.0094907926 0.99972737 1.5738253e-05
6.8301711 3.2242248 -0.3958343 25.333334 0.041545596 0.020290988 0.99893057 1.8570663e-05
11.477952 3.2241452 -0.20810249 22 -0.93274742 -0.34528112 0.10374569 0.12663069
17.976114 3.3534224 -0.31919286 10.666667 -0.78735936 -0.3581852 -0.50176549 0.023964165
18.220612 3.3563502 -0.32340473 10.666667 -0.78744811 -0.35816959 -0.50163728 0.02386277
-18.092999 3.6383271 -0.32213652 16 0.014579643 0.033058498 0.99934703 0.06962736
-14.084929 3.6163945 -0.25382781 7 0.35453972 0.87401634 -0.33226034 0.1141335
-10.926678 3.6924369 -0.20132513 6.6666665 0.91515285 -0.3950375 -0.080253437 0.12502606
-10.748498 3.8820536 -0.19948101 9.333333 0.94594252 -0.20001906 -0.25531369 0.12751482
-4.8088684 3.6276915 -0.31569052 32 0.039141871 -0.088950671 0.99526662 0.00066703174
-4.587286 3.7155385 -0.30943224 26 0.04370378 -0.089419231 0.99503481 0.0006434556
-4.1895399 3.8901267 -0.29968101 25.9 0.045960318 -0.088659756 0.99500102 0.00058772106
-3.9826689 3.9910216 -0.29548883 26 0.04496989 -0.08238966 0.99558508 0.00054785563
-2.4996352 3.6611724 -0.3878895 14.933333 0.029595092 -0.054704767 0.99806386 0.00022710087
-2.2036242 3.8411186 -0.38760483 15.066667 0.026955616 -0.054137383 0.99816966 0.00022508389
-1.9493043 3.969013 -0.38687187 15.285714 0.029421885 -0.053693075 0.99812394 0.00020687874
6.3776088 3.9450452 -0.3930169 24.5 0.019523539 0.010824451 0.99975085 1.4054272e-05
6.4902878 3.7544751 -0.39298674 24.615385 0.017351957 0.0083234906 0.99981475 1.1336044e-05
17.977427 3.9197495 -0.32117084 16.333334 -0.69965005 -0.39018771 -0.59853435 0.032231823
18.01689 3.6983683 -0.32104576 24.75 -0.7748673 -0.38241205 -0.50333071 0.023657043
-10.714543 4.1881723 -0.20081127 23.444445 0.91387135 0.012979593 -0.4057962 0.079750143
-5.3095078 4.3041601 -0.11930466 8 0.41015139 -0.089543216 0.90761101 0.050474532
-3.8115158 4.2108183 -0.29775944 24.846153 0.049040839 -0.082800135 0.99535882 0.0004692543
-3.5611115 4.3549666 -0.29482591 23.333334 0.036671862 -0.072101526 0.99672294 4.6456298e-05
-1.7512184 4.0715361 -0.38785884 15.136364 0.027667893 -0.052909493 0.99821597 0.00018018705
-1.4020979 4.2145958 -0.38874042 15.111111 0.027339036 -0.051924709 0.99827671 0.00016889474
-1.0059708 4.3453717 -0.39036733 15.074074 0.025592092 -0.049432319 0.99844956 0.00011198397
6.247613 4.1877351 -0.39423138 22.117647 0.024921415 0.015756622 0.99956518 1.6649061e-05
17.343311 4.3531165 -0.31211883 33 -0.60438651 -0.41879851 -0.67773503 0.030957261
17.925844 4.2351537 -0.32151988 30.333334 -0.69099122 -0.4189136 -0.58910316 0.033652205
18.044559 4.1979628 -0.32338145 30.333334 -0.69099128 -0.41891387 -0.5891028 0.033652563
-10.899581 4.6109781 -0.20658167 18.714285 0.81228119 0.21747096 -0.54120761 0.092247263
-5.4720583 4.7256436 -0.12620585 10.714286 0.72236764 -0.0052065616 0.69148964 0.09752772
-3.3875372 4.4472237 -0.29302597 22.82353 0.03711598 -0.072944872 0.99664509 3.9856142e-05
-3.0104887 4.5805502 -0.28733811 15.478261 0.041708387 -0.074405648 0.99635547 1.8235771e-05
-2.72911 4.7223678 -0.28585902 12.6 0.042422615 -0.073080443 0.99642336 2.4986399e-05
-0.60007471 4.4597054 -0.39383423 14.481482 0.020968569 -0.045080964 0.99876326 9.8010234e-05
-0.19838533 4.5340257 -0.39717919 14 0.015368371 -0.039279252 0.99911004 8.3115083e-05
0.080337055 4.5633826 -0.3993302 14.1 0.012506454 -0.035732094 0.99928319 8.3259161e-05
5.9539595 4.7205615 -0.39821687 21.714285 0.013677606 0.010300617 0.99985343 7.8778794e-06
6.0767455 4.5161386 -0.39681128 22.545454 0.013652683 0.01028208 0.99985391 6.4765513e-06
17.733822 4.5826602 -0.31972113 17.799999 -0.63843399 -0.40145281 -0.65668684 0.035424005
-10.937785 4.9806552 -0.20979187 40 0.85635221 0.33350873 -0.39424965 0.059839696
-10.746051 4.857275 -0.20584531 40.333332 0.79719192 0.2750304 -0.53744149 0.080588117
-5.359087 4.9296112 -0.12710747 17.181818 0.78834218 0.095780842 0.60773557 0.11151367
-2.5444479 4.9230385 -0.29047075 11.352942 0.042129342 -0.070219807 0.99664146 3.604425e-05
-2.2424653 5.0955348 -0.2918143 15.526316 0.042623736 -0.06462343 0.99699908 6.3733562e-05
5.838666 4.8951349 -0.3993234 22 0.011157498 0.0094061829 0.99989355 4.33587e-06
17.114033 5.0653353 -0.31154293 26.5 -0.67979956 -0.32021889 -0.65979725 0.054658227
17.276009 4.9394994 -0.31364301 19 -0.68270051 -0.3543947 -0.63900268 0.055736981
-11.345443 5.5116081 -0.22016792 26 0.83996636 0.53732193 0.07577353 0.06806276
-11.078528 5.2630048 -0.21408866 23 0.84390551 0.47889236 -0.24183802 0.034813497
-5.6208596 5.5594401 -0.13799617 16 0.58063585 -0.1329273 0.80323869 0.17167614
-5.4544244 5.2856073 -0.13257721 15.5 0.67851293 0.043210935 0.73331636 0.1157198
-2.042953 5.2220359 -0.29387689 18.4 0.044832177 -0.062206 0.99705595 5.9472237e-05
-1.7884326 5.3219848 -0.29431924 14.826087 0.041926786 -0.059801679 0.99732941 8.2655046e-05
-1.5258698 5.5459805 -0.30146679 17.777779 0.040762648 -0.074744597 0.99636924 0.0007885893
5.1605325 5.5650902 -0.39775333 20.666666 0.020887971 0.019810809 0.99958551 0
5.2765856 5.4774375 -0.39860377 19.5 0.020075087 0.018376067 0.99962962 1.1724461e-06
17.079487 5.4115129 -0.31273547 35.5 -0.85216683 -0.22105522 -0.47428498 0.06358353
-11.47543 5.8005643 -0.22444375 18 0.82844532 0.44676611 0.33775488 0.075529583
-7.182404 5.6601171 -0.15961972 3 -0.42014334 -0.90198034 -0.099554159 0.16752473
-5.7387657 5.8365479 -0.14287703 15.166667 0.11248809 -0.2452008 -0.96292418 0.20575935
-1.3224343 5.6711154 -0.30521584 19 0.037947964 -0.070727207 0.99677354 0.00083358941
-1.012323 5.7801228 -0.30758423 19.777779 0.035301279 -0.067197613 0.99711502 0.00085649936
-0.6219247 5.9604807 -0.31408119 23 0.038186058 -0.064935572 0.99715853 0.00084609905
4.6809258 5.961751 -0.39725608 18.75 0.02046435 0.019982269 0.99959087 0
5.047411 5.6814213 -0.3982999 20.888889 0.020886121 0.019808538 0.99958563 0
17.089811 5.8105412 -0.31507996 36.666668 -0.96400058 -0.17987347 -0.19582739 0.11462657
-11.678962 6.2101178 -0.23088661 9 0.97039306 0.16609104 0.17536022 0.11786176
-11.583319 6.0324636 -0.22796333 18 0.89132011 0.16276559 0.42314976 0.10057474
-5.8426919 6.1727452 -0.14835942 22.799999 0.65030396 -0.25562119 -0.71537584 0.12537357
-0.82881814 6.0168247 -0.31830731 20 0.03640411 -0.066099204 0.99714875 0.00087641034
-0.58016276 6.0934696 -0.32087657 23.09091 0.035035748 -0.06189068 0.99746782 0.00090754556
-0.20659219 6.2514024 -0.32785997 24.421053 0.036853481 -0.060660549 0.99747783 0.00081556628
0.19591939 6.2707539 -0.32885009 25 0.033781275 -0.057060417 0.99779904 0.00087063492
0.56858891 6.3464141 -0.33398017 25.466667 0.031204209 -0.052926142 0.99811071 0.00083190337
3.0300364 6.3865309 -0.37050721 19.200001 0.0096468283 -0.023932073 0.99966699 1.1588997e-05
3.3946047 6.3520818 -0.3774958 17.733334 0.0077888323 -0.020144865 0.99976671 1.455915e-05
3.7956691 6.2912936 -0.38511595 17.333334 0.0067137219 -0.015308418 0.99986023 2.1950967e-05
4.2398701 6.2421579 -0.39551592 18.875 0.019316802 0.018480942 0.99964261 0
4.5065265 6.0679355 -0.39613092 18.5 0.020464169 0.019981928 0.99959087 0
16.998857 6.2108483 -0.31590849 21.857143 -0.94568801 0.19323346 0.26140961 0.075888254
-11.8028 6.5958381 -0.23601325 23.5 0.9517554 0.12971757 -0.27809176 0.10393339
-6.040482 6.6305461 -0.15656555 20.833334 0.98130572 -0.13727215 -0.13489051 0.10826597
-5.9687471 6.75949 -0.15740326 22.5 0.98129934 -0.13732669 -0.13488135 0.10827245
0.74111587 6.4116721 -0.33826473 24 0.03063238 -0.053398717 0.99810326 0.00077748939
1.0085697 6.4794335 -0.34371182 22.117647 0.028429935 -0.053478222 0.99816424 0.00067243213
1.4063379 6.5476265 -0.3510173 18.875 0.027252039 -0.044843201 0.99862218 0.00066285697
1.7939637 6.5530658 -0.35611352 21.5 0.028173011 -0.042086568 0.99871665 0.00065222546
2.1980009 6.5007019 -0.35969341 17.555555 0.013608755 -0.029524071 0.99947143 1.1359267e-05
2.6077309 6.4367847 -0.36401623 17.375 0.011737491 -0.02614066 0.99958938 1.0501203e-05
2.9428067 6.4085984 -0.36959654 18 0.010294631 -0.025327653 0.9996261 1.3177377e-05
16.728441 6.6448379 -0.31419221 8 -0.821006 0.29989409 0.48581123 0.094437703
16.839783 6.4540763 -0.31478906 12 -0.82101136 0.29989168 0.48580369 0.094437353
-12.028304 7.0796871 -0.24362397 40.333332 0.82457739 0.14970456 -0.54558295 0.064349905
-11.847975 6.8625088 -0.23899324 26 0.8845638 0.16382806 -0.43670034 0.090272874
-6.0284023 6.8282647 -0.15899143 31 0.97935355 -0.062026072 -0.19240457 0.10199642
-5.7864904 6.9634604 -0.15805399 17.071428 0.88173938 0.051544663 -0.46891248 0.079263508
-5.5727701 7.0385985 -0.15670516 29 0.88177055 0.051480312 -0.46886083 0.07923995
-0.38885078 6.8058629 -0.11899051 5 0.12647033 -0.36893153 0.92081201 0.0089046787
16.673687 6.9577031 -0.31536499 8 -0.60839063 0.32455802 0.72423953 0.050947018
-12.153493 7.3826089 -0.24821511 31.6 -0.14053984 -0.27029207 -0.95246553 0.093932755
-10.818074 7.4267211 -0.22904538 12 -0.046982788 -0.26370308 -0.96345901 0.06629651
-9.5657883 7.4306779 -0.21143009 19 -0.1513705 -0.28197655 -0.94740498 0.050091766
17.107864 7.5633082 -0.32649961 33 -0.063664541 -0.045347039 -0.99694061 0.0086791385
17.389627 7.5428252 -0.33086273 27.333334 -0.063664615 -0.045346897 -0.99694055 0.0086789625
17.811337 7.5050364 -0.33737248 17 -0.28251576 0.17396836 0.94335568 0.036011916
18.123028 7.4143214 -0.34178793 8 -0.37229413 0.18484099 0.90952229 0.035507806
-12.406148 7.9554362 -0.25724846 29 0.4816063 0.17320286 0.85910195 0.085358553
-12.334105 7.7600346 -0.25436011 26.25 0.38170764 0.17311178 0.90792716 0.09028586
-11.127599 7.8119044 -0.23731782 6 0.041548606 -0.24594364 -0.96839321 0.026176494
-10.580416 7.7023559 -0.22844619 6 0.0024954739 -0.34737268 -0.93772382 0.058019925
-10.096929 7.6781011 -0.22141285 8 -0.15140395 -0.28194869 -0.94740796 0.050091036
17.038771 7.7113004 -0.32645598 28.75 0.015186133 0.0073543377 0.99985766 0
-12.366112 8.1444044 -0.25846434 34.833332 0.54983586 0.11675182 0.82707286 0.10419367
-11.29589 8.2245016 -0.2439032 13 -0.042786781 -0.17468925 -0.98369354 0.033384249
-10.130266 8.1217022 -0.22663695 6 -0.03844988 -0.37984654 -0.92425013 0.056183029
-2.6171515 8.3212433 -0.15226352 28 -0.4348768 -0.39296395 -0.81022304 0.17603233
-1.9817839 8.3836241 -0.15036994 23 0.28310329 -0.52573985 -0.80215341 0.16515107
18.051104 8.3599014 -0.34723309 25 0.015067439 0.0075310385 0.99985808 0
-12.453944 8.5501289 -0.26368842 25.75 0.73268694 -0.0067480551 0.68053246 0.083726302
-10.967052 8.7017307 -0.2443686 6 0.095034182 0.090540111 0.99134803 0.029780306
-10.435616 8.5232162 -0.23518863 13 -0.019542944 -0.35334644 -0.93528837 0.026602222
-10.263739 8.5311918 -0.23296344 12.5 -0.019542944 -0.35334644 -0.93528837 0.026602222
-2.5491297 8.4574766 -0.15418619 15 0.80582595 -0.16448641 0.56884867 0.11704309
-2.2215776 8.5536852 -0.15427391 17.538462 -0.35681945 -0.44335115 -0.82226503 0.18441245
-1.966924 8.7277308 -0.15616414 18.5 0.36072874 -0.47446674 -0.80296707 0.13867939
17.569527 8.6986847 -0.34220678 17 0.014964131 0.0077383267 0.99985814 0
17.871466 8.6179686 -0.34632555 21 0.015010635 0.0076482939 0.99985802 0
18.007948 8.4547443 -0.34725052 25 0.015010729 0.007648502 0.99985802 0
-2.0177736 9.1773691 -0.16401772 33 0.27161214 -0.043072745 0.96144241 0.12224671
-1.5378962 8.9706764 -0.15886927 24.25 0.35509205 -0.29599726 -0.88673288 0.12024071
-1.1354953 9.1947031 -0.161714 3 0.41680974 -0.33222422 -0.84610689 0.13917729
17.453602 9.0923395 -0.34352618 11.6 0.014861546 0.0078160344 0.99985898 0
17.650072 9.0087814 -0.34589505 17 0.014860308 0.0078155054 0.99985898 0
-7.4291768 9.5535097 -0.21124394 17 0.83905762 0.51887 -0.16357343 0.037921444
-2.0013638 9.2566738 -0.16530919 11 0.19046637 -0.02509095 0.98137307 0.11096247
-1.8531675 9.4293633 -0.1677438 16.625 -0.020058917 -0.020331604 0.99959207 0.12473819
-1.3202507 9.3459034 -0.16475943 10 0.26241875 -0.21106359 -0.94158834 0.11683792
-1.0614331 9.2730131 -0.16291821 11 0.47528362 -0.50168842 -0.72278231 0.1236355
4.3567696 9.5130749 -0.18263945 15.5 -0.58943951 -0.61697954 0.5214377 0.1476558
4.4544768 9.402585 -0.18160975 30 -0.58947116 -0.61697602 0.52140605 0.14764875
16.798038 9.5542536 -0.33732012 8 0.014485842 0.0081823654 0.99986154 0
17.054556 9.503891 -0.34079316 8 0.014486297 0.0079448475 0.99986351 0
17.300949 9.3662882 -0.34340522 11 0.014633686 0.0078008478 0.99986243 0
-7.6408792 9.9685879 -0.21923712 24 0.77817667 0.28729957 -0.55848014 0.06485749
-7.5204291 9.7408361 -0.21480422 35 0.87897897 0.44691148 -0.16633132 0.073483005
-5.009984 9.9569139 -0.19455943 5 0.15830931 -0.34505844 -0.92513388 0.030028954
-2.0654984 9.7173948 -0.17340712 20 -0.097425334 -0.060405299 -0.99340802 0.082104392
3.8441465 9.96663 -0.18646649 19.571428 -0.47871578 -0.66181058 0.57692105 0.16443215
4.1719785 9.7918243 -0.18579833 16.833334 -0.5894596 -0.61695307 0.52144635 0.14766239
16.25458 9.9578218 -0.33273593 10.666667 -0.015357452 -0.0093310783 -0.99983847 0
